ply
format ascii 1.0
comment written by Chenxi
element vertex 207
property float32 x
property float32 y
property float32 z
property uchar red
property uchar green
property uchar blue
end_header
0.0933	0.00944	0.0866	212	151	68
0.228	-0.0259	0.0834	190	175	154
-0.102	-0.12	0.0919	91	97	97
0.115	0.124	0.086	55	50	46
0.163	-0.191	0.0854	108	89	85
0.0231	-0.0786	0.0884	64	64	66
-0.0861	0.151	0.091	89	84	78
0.0144	-0.131	0.0889	181	161	124
0.112	0.118	0.0861	111	111	109
-0.0148	0.00413	0.0889	174	149	108
0.0313	0.0603	0.0881	127	106	87
0.0571	-0.041	0.0874	105	107	106
0.186	0.0621	0.0843	57	39	25
0.0919	-0.0755	0.0868	124	83	39
-0.0802	-0.0774	0.0914	77	79	78
0.111	-0.0873	0.0863	255	246	194
-0.0632	-0.0194	0.0916	44	42	43
0.202	-0.054	0.0841	202	197	193
0.0919	-0.0755	0.0868	124	83	39
0.224	0.0304	0.0835	216	213	206
0.0653	0.0224	0.0872	146	105	59
-0.119	0.171	0.0918	54	40	27
0.134	-0.0294	0.0857	214	187	132
0.134	-0.0294	0.0857	214	187	132
0.0766	-0.175	0.0875	31	29	32
0.0182	0.12	0.0884	61	53	50
0.174	-0.0826	0.0848	116	45	27
0.109	-0.0881	0.0864	115	71	32
0.0263	0.0691	0.0882	125	106	99
-0.0702	0.172	0.0905	155	123	85
0.174	-0.0826	0.0848	105	32	15
0.0839	0.104	0.0868	255	251	189
0.159	-0.0785	0.0852	209	65	39
-0.0892	0.0572	0.0913	124	107	91
-0.133	-0.0454	0.0926	245	224	171
0.111	0.124	0.0861	33	32	30
-0.109	0.138	0.0916	109	93	80
-0.133	-0.125	0.0927	255	255	233
0.0839	0.104	0.0868	255	251	189
-0.0632	-0.0194	0.0916	44	42	43
0.0123	0.0751	0.0886	82	69	63
0.082	0.0228	0.0868	157	148	131
0.0249	0.0555	0.0882	139	122	106
0.076	-0.191	0.0875	247	255	249
-0.0424	-0.0944	0.0903	96	105	104
-0.0621	0.109	0.0905	154	103	48
-0.0488	-0.0151	0.0924	94	92	95
-0.0468	-0.105	0.0905	30	26	27
-0.0861	0.151	0.091	89	84	78
0.0298	-0.112	0.0884	31	33	32
0.0611	-0.048	0.0874	98	98	98
-0.153	-0.0559	0.0931	94	95	100
0.0491	-0.00835	0.0875	254	255	255
-0.145	0.039	0.0927	155	135	102
0.0507	-0.0941	0.0878	92	96	99
-0.134	-0.0397	0.0926	128	89	46
-0.0451	0.145	0.09	52	47	41
0.0546	-0.0604	0.0876	97	97	97
0.0514	-0.0612	0.0876	72	70	71
0.064	-0.0292	0.0873	98	100	99
-0.0533	-0.0214	0.092	90	96	96
-0.133	-0.0619	0.0926	254	255	255
-0.143	-0.0718	0.0929	69	68	73
0.198	-0.0909	0.0843	217	82	60
-0.0602	-0.00225	0.0913	71	72	74
-0.0617	-0.067	0.091	84	85	87
-0.146	-0.0989	0.0929	27	27	27
-0.159	-0.00841	0.0931	80	80	82
0.182	-0.147	0.0848	227	79	51
-0.0823	0.159	0.0909	22	21	19
-0.153	-0.0652	0.0931	94	97	102
0.0702	-0.0814	0.0873	96	101	97
-0.137	-0.0023	0.0926	77	75	80
0.0332	0.0607	0.088	138	111	82
0.183	0.00485	0.0845	75	71	72
0.18	-0.0993	0.0848	140	122	100
0.112	0.118	0.0861	111	111	109
-0.106	-0.0438	0.0921	238	210	162
-0.0439	-0.0255	0.093	94	94	94
0.195	-0.112	0.0844	65	46	39
-0.0987	0.138	0.0913	109	95	84
-0.153	-0.0652	0.0931	94	97	102
0.162	0.11	0.0849	25	23	24
0.0273	0.208	0.0881	103	102	98
0.0514	-0.0612	0.0876	72	70	71
-0.00462	0.21	0.0889	128	132	133
0.0503	0.191	0.0875	89	90	95
-0.0967	-0.0547	0.0919	126	109	81
-0.0439	-0.0255	0.093	94	94	94
0.0218	0.145	0.0883	225	218	200
-0.151	-0.0128	0.093	89	87	90
-0.151	-0.0128	0.093	89	87	90
0.0706	-0.0222	0.0871	98	98	100
-0.0463	-0.054	0.0906	88	92	95
-0.0487	-0.0881	0.0905	101	96	102
-0.0404	-0.0653	0.0903	72	73	75
0.0706	-0.0222	0.0871	98	98	100
0.0418	0.108	0.0878	141	109	84
0.0537	-0.0287	0.0875	99	100	102
-0.0696	0.12	0.0906	148	95	45
0.064	-0.0292	0.0873	98	100	99
-0.028	-0.0866	0.0899	111	110	115
-0.108	0.144	0.0915	41	40	35
-0.0149	-0.0461	0.089	107	106	111
-0.0513	-0.0259	0.092	94	100	100
-0.0364	0.151	0.0898	115	108	98
-0.0488	-0.0309	0.0917	106	107	111
0.0507	-0.0891	0.0878	94	103	102
0.216	0.0145	0.0837	31	22	17
0.0537	-0.0287	0.0875	99	100	102
0.238	0.0795	0.0831	97	95	96
-0.0961	0.0698	0.0914	70	65	59
-0.039	-0.0107	0.0908	89	92	97
-0.151	-0.0914	0.093	55	56	60
-0.0474	0.0797	0.0902	41	33	31
0.223	-0.105	0.0837	207	71	49
0.0288	-0.0943	0.0884	101	102	106
0.0461	0.182	0.0876	13	13	11
-0.0778	-0.082	0.0913	69	70	72
-0.0778	-0.082	0.0913	69	70	72
0.0165	0.0602	0.0885	94	76	64
-0.0617	-0.067	0.091	84	85	87
0.0841	0.119	0.0868	95	59	25
-0.0405	-0.0533	0.0903	106	107	109
0.0472	-0.0774	0.0878	98	104	104
-0.0539	-0.0264	0.0918	96	100	101
0.0319	0.0773	0.0881	214	193	146
-0.0315	0.118	0.0897	236	207	149
-0.123	0.193	0.0918	96	96	98
-0.0926	0.0989	0.0913	157	110	58
-0.00986	-0.0102	0.0885	152	133	93
-0.0735	-0.0816	0.0912	68	68	70
-0.0404	-0.0653	0.0903	72	73	75
-0.0182	-0.031	0.0883	117	118	122
-0.0448	-0.061	0.0905	69	70	72
-0.1	0.189	0.0913	149	116	81
0.0147	-0.108	0.0888	103	105	102
0.035	0.0795	0.088	255	254	193
-0.0204	0.000103	0.0889	92	83	84
-0.152	-0.0225	0.093	91	93	92
0.0292	0.0713	0.0881	68	61	55
-0.152	-0.0315	0.093	102	98	99
-0.0702	0.172	0.0905	155	123	85
-0.133	-0.0454	0.0926	245	224	171
0.0108	-0.0931	0.0888	123	124	126
0.0866	-0.121	0.087	104	108	111
-0.0256	-0.0513	0.0896	69	70	75
-0.139	-0.0432	0.0928	136	115	84
0.13	-0.162	0.0861	28	18	17
0.0331	0.0795	0.088	255	251	198
-0.0566	-0.083	0.0908	105	109	112
0.0866	-0.121	0.087	104	108	111
-0.000661	-0.0627	0.0889	113	122	121
0.0103	0.113	0.0886	255	242	185
-0.0298	0.222	0.0895	130	128	131
-0.039	-0.0107	0.0908	89	92	97
-0.0226	0.159	0.0894	101	72	42
0.014	-0.0748	0.0886	136	141	144
0.014	-0.0748	0.0886	136	141	144
-0.139	-0.0788	0.0928	103	104	108
-0.139	-0.0788	0.0928	103	104	108
-0.145	0.0759	0.0926	160	135	104
0.226	-0.0647	0.0836	81	75	75
0.0187	-0.0712	0.0885	120	130	132
-0.0488	-0.0309	0.0917	106	107	111
0.0267	0.144	0.0882	186	182	171
0.0169	0.154	0.0884	255	253	221
-0.0798	-0.00766	0.0916	86	62	26
0.0151	-0.1	0.0887	43	45	42
0.0851	0.11	0.0867	127	104	73
-0.0632	0.116	0.0905	234	208	159
-0.0744	0.000321	0.0914	31	29	32
-0.0497	-0.0848	0.0906	58	59	63
0.194	0.0806	0.0841	99	95	94
-0.152	-0.0225	0.093	91	93	92
0.0149	0.0721	0.0885	118	104	93
0.0345	0.0795	0.088	255	251	190
-0.0133	-0.0415	0.0888	128	134	130
0.0147	-0.108	0.0888	103	105	102
-0.111	-0.0432	0.0922	135	115	80
-0.0555	-0.0889	0.0907	94	102	104
-0.0984	0.0814	0.0915	91	78	61
-0.000328	0.176	0.0888	207	157	106
-0.0133	-0.0415	0.0888	128	134	130
0.0425	0.106	0.0878	255	251	192
-0.0998	0.0854	0.0915	255	248	191
-0.104	-0.041	0.092	94	64	26
-0.0497	-0.0848	0.0906	58	59	63
-0.0971	-0.00978	0.0919	71	59	45
0.0794	-0.163	0.0874	42	42	42
-0.0305	0.0112	0.0896	83	83	85
0.0147	0.0119	0.0883	175	152	108
0.0258	-0.105	0.0885	40	40	40
0.034	0.0236	0.0879	138	94	45
-0.0811	-0.00568	0.0916	255	230	183
-0.109	0.0373	0.0919	149	126	94
-0.0396	0.153	0.0898	75	57	45
-0.0566	0.157	0.0902	234	209	155
-0.0262	0.0176	0.0895	124	101	60
-0.128	-0.0923	0.0925	112	111	116
-0.108	-0.0911	0.0921	112	111	116
-0.109	-0.011	0.0921	109	94	71
-0.124	-0.00793	0.0924	253	236	192
0.0623	0.184	0.0872	99	100	102
0.187	-0.179	0.0848	29	19	17
0.09	-0.15	0.0871	99	104	107
-0.021	0.201	0.0893	93	88	94
