ply
format ascii 1.0
comment written by Chenxi
element vertex 967
property float32 x
property float32 y
property float32 z
property uchar red
property uchar green
property uchar blue
end_header
0.45	0.249	-4.65	86	90	93
0.358	-0.178	-2.23	49	46	39
0.225	0.119	-4.72	211	189	131
-0.293	-0.074	-5.15	176	118	54
-0.0686	0.0751	-4.84	212	151	68
0.888	-0.116	-4.94	61	52	47
-0.341	0.394	-4.95	83	35	21
0.546	0.524	-4.76	80	81	85
-0.666	-0.0974	-5.53	59	56	47
0.848	-0.632	-5.22	59	50	35
0.764	-0.673	-5.22	68	57	51
-0.509	0.044	-5.3	36	32	33
-0.769	0.261	-5.46	190	175	154
0.776	0.632	-5.08	91	97	97
-0.0672	0.469	-4.71	217	151	67
0.322	0.125	-4.56	189	167	126
0.63	0.403	-4.72	70	73	78
-0.698	-0.274	-5.64	107	107	107
-0.129	0.0922	-4.95	79	68	62
-0.542	0.596	-5.15	110	29	12
-0.397	0.953	-5.22	55	31	21
-0.744	0.165	-5.49	132	119	103
0.996	0.133	-4.81	54	56	51
-0.305	-0.132	-5.13	201	146	63
-0.178	-0.458	-5.23	55	50	46
0.618	0.371	-4.72	102	103	107
-0.443	-0.299	-5.39	189	174	155
-0.404	1.03	-5.22	108	89	85
-0.707	0.439	-5.31	49	46	41
-0.116	-0.574	-5.2	52	51	49
0.226	0.434	-4.69	64	64	66
0.556	0.353	-4.7	99	102	107
0.827	-0.49	-5.14	34	29	26
0.721	-0.533	-5.13	89	84	78
-0.628	0.604	-5.19	103	25	12
0.861	0.297	-4.67	255	252	252
0.313	-0.0667	-4.71	187	163	117
-0.26	0.457	-4.81	26	24	25
0.264	0.651	-4.72	181	161	124
0.714	-0.502	-5.1	30	22	19
-0.16	-0.424	-5.19	111	111	109
-0.628	0.176	-5.37	177	169	148
0.37	0.0932	-4.57	174	149	108
0.987	0.14	-4.81	40	40	40
0.197	-0.139	-4.79	127	106	87
-0.0839	-0.568	-5.16	89	77	61
-0.744	0.165	-5.49	132	119	103
0.104	0.56	-4.8	108	112	113
-0.233	0.828	-5.14	250	115	68
0.85	0.583	-4.88	122	109	90
0.573	0.323	-4.68	31	27	26
-0.294	-0.152	-5.17	31	24	16
-0.411	0.881	-5.17	252	101	70
-0.525	0.0236	-5.32	187	181	167
0.821	0.232	-4.69	143	100	55
-0.707	0.537	-5.27	178	163	142
0.0863	0.283	-4.7	105	107	106
-0.0219	-0.132	-4.93	254	255	223
0.491	-0.174	-4.83	63	53	44
0.774	0.813	-5.02	12	11	9
-0.29	-0.186	-5.16	210	189	142
0.287	0.164	-4.56	181	157	113
0.82	-0.46	-5.13	121	102	85
0.0592	0.365	-4.77	88	58	32
1.02	0.0822	-4.84	152	117	79
-0.41	0.628	-4.98	220	219	214
-0.42	0.507	-5.03	110	101	92
-0.107	0.388	-4.77	202	180	139
-0.0576	0.415	-4.7	255	255	230
0.777	0.219	-4.7	48	38	36
-0.55	0.788	-5.11	33	24	25
0.384	0.14	-4.6	127	125	130
-0.355	0.641	-5.01	242	228	219
0.826	-0.514	-5.16	39	36	29
-0.233	0.828	-5.14	250	115	68
-0.289	-0.135	-5.16	52	41	35
0.632	0.000365	-4.73	137	91	41
0.0925	0.00463	-4.71	230	157	63
0.336	-0.176	-4.75	222	150	68
-0.0154	0.982	-5.09	72	70	73
0.0759	0.385	-4.74	67	50	32
-0.212	-0.0857	-5.05	224	154	69
-0.386	1	-5.21	253	253	251
0.935	-0.038	-4.9	135	116	86
-28.8	65.7	-723	94	99	95
-0.554	-0.181	-5.5	57	39	25
0.801	-0.514	-5.15	32	27	24
-0.0595	0.428	-4.7	124	83	39
0.384	0.14	-4.6	127	125	130
0.438	-0.554	-5	105	72	37
0.798	0.62	-4.99	123	121	122
-0.246	-0.219	-5.18	67	60	50
0.64	0.423	-4.74	77	79	78
0.0935	0.655	-4.88	82	86	89
0.22	-0.406	-4.95	177	166	148
-0.448	-0.199	-5.37	94	78	79
0.808	0.273	-4.67	153	106	52
0.337	-0.0725	-4.69	214	151	72
-0.0731	0.893	-5.15	152	149	142
0.28	0.0388	-4.63	182	131	65
0.292	0.588	-4.75	52	49	42
-0.321	0.26	-5.01	203	144	76
-0.144	0.484	-4.74	255	246	194
0.508	0.536	-4.72	26	24	25
-0.496	-0.344	-5.46	255	252	251
0.213	-0.128	-4.79	73	66	60
0.814	0.366	-4.62	66	63	70
0.564	0.188	-4.67	44	42	43
-0.355	0.641	-5.01	242	228	219
-0.186	-0.41	-5.21	112	113	105
0.743	0.215	-4.7	44	36	34
-0.398	0.248	-5.09	80	77	72
0.457	0.361	-4.66	101	105	108
-0.152	0.466	-4.78	129	87	47
-0.196	0.878	-5.17	244	80	45
-0.624	0.199	-5.35	166	154	132
-0.773	-0.18	-5.67	100	96	93
-0.267	0.0171	-5.07	254	255	212
-0.604	0.384	-5.23	202	197	193
0.689	-0.29	-4.9	156	105	50
0.373	-0.537	-4.96	142	89	37
-0.811	-0.0543	-5.67	155	134	115
-0.7	0.476	-5.28	55	51	48
0.871	0.638	-4.88	254	253	255
-0.477	-0.354	-5.47	103	97	99
-0.0595	0.428	-4.7	124	83	39
-0.238	-0.257	-5.19	22	21	17
0.798	-0.337	-4.99	41	34	26
0.592	0.105	-4.67	66	66	64
-0.761	-0.0237	-5.58	216	213	206
0.0521	0.0194	-4.75	146	105	59
0.741	-0.621	-5.17	79	72	64
-0.256	-0.435	-5.3	27	22	19
0.749	-0.17	-4.89	141	121	94
-0.114	-0.573	-5.19	47	47	45
0.503	0.494	-4.73	76	80	81
-0.101	-0.516	-5.15	49	48	44
0.869	-0.621	-5.19	54	40	27
0.554	-0.723	-5.15	49	40	33
0.951	-0.394	-5.14	138	88	39
-0.267	0.0171	-5.07	254	255	212
-0.578	0.597	-5.15	141	133	120
0.827	-0.538	-5.19	34	28	28
0.824	-0.538	-5.17	34	28	28
0.248	0.417	-4.68	102	110	112
-0.254	0.248	-4.92	214	187	132
-0.254	0.248	-4.92	214	187	132
-0.422	1.03	-5.2	84	77	71
0.498	-0.711	-5.1	26	25	23
0.231	0.402	-4.66	118	121	126
0.636	0.217	-4.62	115	86	46
0.067	0.421	-4.66	123	127	128
0.735	-0.543	-5.14	33	28	25
0.55	-0.791	-5.07	108	104	105
-0.0525	0.858	-5.13	81	61	50
-0.389	0.509	-5.03	70	41	27
-0.416	0.478	-5.04	111	33	20
-0.399	0.341	-5.04	115	112	105
0.553	-0.109	-4.82	57	44	38
0.0535	-0.192	-4.85	225	155	67
0.00676	0.907	-5.09	31	29	32
0.259	-0.399	-4.94	61	53	50
-0.341	0.342	-4.98	39	31	28
-0.45	0.502	-5.07	116	45	27
-0.132	0.487	-4.74	115	71	32
0.252	-0.195	-4.83	88	79	72
0.219	-0.177	-4.83	125	106	99
0.073	0.493	-4.78	99	103	106
0.927	0.472	-4.84	93	97	98
0.655	-0.631	-5.14	155	123	85
0.32	0.691	-4.74	29	24	28
0.816	0.61	-4.97	38	36	39
0.0278	0.374	-4.69	88	60	39
-0.642	0.421	-5.25	137	130	120
0.729	0.262	-4.63	137	118	88
-0.45	0.502	-5.06	105	32	15
0.725	0.205	-4.68	120	117	102
0.913	0.634	-4.88	228	194	149
-0.356	0.571	-5.01	44	33	27
0.529	0.253	-4.66	103	98	102
-0.0285	-0.342	-4.99	255	251	189
0.715	0.244	-4.65	70	61	54
-0.262	0.864	-5.15	248	111	67
0.717	0.522	-4.77	86	90	91
0.208	-0.389	-4.95	55	45	43
-0.668	-0.369	-5.34	100	98	103
0.0188	0.687	-4.88	86	86	88
0.919	0.127	-4.79	85	86	88
0.574	-0.485	-5.02	98	79	62
-0.732	0.172	-5.47	181	165	132
-0.615	-0.107	-5.49	187	170	154
0.54	-0.814	-5.07	100	100	102
0.557	0.353	-4.69	98	101	106
-0.0133	0.966	-5.06	249	254	247
-0.351	-0.323	-5.3	136	94	44
0.198	-0.495	-5.01	85	80	76
-0.662	0.607	-5.21	180	63	43
0.805	0.32	-4.63	142	94	45
-0.683	-0.0206	-5.52	30	20	18
-0.374	0.475	-5	209	65	39
0.696	-0.119	-4.87	124	107	91
0.825	0.287	-4.64	245	224	171
-0.272	-0.431	-5.3	57	52	46
0.72	-0.658	-5.22	63	58	55
0.237	-0.162	-4.81	106	88	74
0.904	-0.073	-4.92	65	52	44
0.47	-0.0921	-4.72	192	165	122
0.866	0.567	-4.87	57	50	40
0.0947	0.344	-4.72	111	113	112
-0.16	-0.454	-5.21	33	32	30
-0.282	-0.235	-5.19	115	95	71
0.452	0.286	-4.66	98	102	105
0.534	0.23	-4.68	97	99	98
-0.482	-0.377	-5.48	40	35	32
-0.914	-0.248	-5.58	130	130	130
0.746	-0.483	-5.11	105	87	75
0.877	0.28	-4.67	73	65	62
0.816	-0.474	-5.13	109	93	80
0.777	-0.433	-5.09	93	86	78
-0.627	-0.184	-5.51	169	157	145
-0.0925	-0.683	-5.1	88	89	91
-0.595	-0.208	-5.52	54	51	46
0.864	0.621	-4.85	255	255	233
-0.389	0.509	-5.03	70	41	27
0.208	-0.413	-4.96	97	84	78
-0.337	-0.392	-5.33	58	44	35
0.774	-0.475	-5.1	137	119	107
0.273	0.668	-4.7	41	36	30
0.614	0.383	-4.72	63	66	71
-0.493	0.0298	-5.3	159	146	127
0.327	0.0358	-4.79	165	125	74
-0.611	0.433	-5.21	78	74	65
-0.511	0.118	-5.27	65	58	50
0.925	-0.0581	-4.91	116	99	89
-0.123	0.464	-4.74	208	147	66
0.489	0.528	-4.73	102	104	103
-0.327	-0.45	-5.34	80	73	55
-0.0285	-0.342	-4.99	255	251	189
0.22	0.577	-4.78	34	32	33
-0.805	0.266	-5.5	255	255	253
-0.658	-0.0631	-5.51	92	83	84
-0.119	0.508	-4.72	140	93	49
-0.684	-0.379	-5.47	100	98	103
-0.0133	0.966	-5.06	249	254	247
-0.799	-0.304	-5.54	101	101	103
0.336	0.0332	-4.73	165	130	66
0.904	-0.073	-4.92	65	52	44
0.227	-0.497	-4.99	79	73	73
-0.396	0.918	-5.25	255	112	73
0.898	-0.624	-5.23	72	45	26
0.866	-0.798	-5.07	109	108	114
-0.497	0.14	-5.26	202	199	194
0.183	0.36	-4.66	101	104	111
0.738	0.671	-5.09	255	255	255
0.596	-0.546	-5.05	79	49	21
0.159	0.138	-4.6	144	124	89
-0.262	0.438	-4.95	75	75	73
-0.463	0.489	-5.07	193	78	49
0.564	0.188	-4.67	44	42	43
-0.8	0.263	-5.49	255	254	255
0.815	-0.607	-5.21	56	48	45
-0.454	1.04	-5.22	99	88	92
0.278	-0.201	-4.83	82	69	63
0.478	-0.713	-5.1	25	24	22
0.456	0.171	-4.64	100	101	105
0.191	0.0371	-4.75	189	131	57
-0.238	-0.257	-5.19	22	21	17
-0.0157	0.924	-5.14	80	74	76
0.731	-0.464	-5.06	97	85	73
-0.602	-0.0494	-5.44	149	136	119
-0.0195	0.0177	-4.86	157	148	131
0.469	0.381	-4.67	98	102	105
-0.284	-0.515	-5.3	81	82	84
0.677	0.211	-4.66	41	34	26
0.532	0.292	-4.67	105	103	104
0.513	-0.809	-5.01	113	111	116
0.423	0.151	-4.62	133	133	135
0.28	-0.396	-4.91	175	150	110
0.224	-0.118	-4.8	139	122	106
0.729	0.227	-4.67	67	64	57
0.87	0.269	-4.69	91	89	90
0.25	-0.195	-4.84	93	82	76
-0.0118	-0.701	-5.06	90	91	93
0.232	-0.192	-4.84	76	70	58
0.25	-8.27e-05	-4.68	144	122	83
0.208	-0.0877	-4.77	154	143	123
-0.323	0.573	-5.02	223	73	46
-0.157	0.776	-4.98	123	143	142
-0.295	0.6	-5.02	244	92	55
-0.165	0.361	-4.83	151	112	57
0.469	0.381	-4.67	98	102	105
0.0139	-0.776	-4.94	109	110	112
-0.511	0.118	-5.27	65	58	50
0.76	-0.69	-5.23	74	55	38
-0.815	-0.0376	-5.66	154	133	112
-0.586	-0.297	-5.57	255	254	251
0.223	-0.147	-4.8	245	238	220
-0.787	-0.0957	-5.65	200	191	182
0.00985	0.978	-5.09	247	255	249
0.195	0.364	-4.69	64	68	71
-0.485	0.0942	-5.28	168	156	132
0.627	0.281	-4.57	255	255	255
-0.785	0.222	-5.5	120	99	80
0.0509	0.0459	-4.72	254	255	193
0.604	-0.276	-4.87	163	109	49
0.429	-0.0485	-4.67	180	126	64
-0.428	0.998	-5.21	254	254	254
0.489	0.492	-4.7	96	105	104
0.0134	-0.709	-5.08	87	87	89
0.59	-0.338	-4.89	154	103	48
-0.144	0.899	-5.24	250	92	55
0.501	0.169	-4.62	94	92	95
0.56	0.178	-4.67	88	84	83
0.508	0.537	-4.71	30	26	27
0.962	0.159	-4.81	55	53	56
0.294	-0.0532	-4.71	168	149	109
0.721	-0.533	-5.13	89	84	78
0.79	-0.287	-4.96	161	111	58
-0.127	0.763	-4.95	77	82	85
0.509	0.138	-4.66	85	86	88
0.203	0.584	-4.79	31	33	32
0.807	-0.648	-5.23	67	60	54
0.318	-0.235	-4.8	211	148	68
0.82	-0.565	-5.19	44	39	36
0.0698	0.313	-4.72	98	98	98
-0.424	0.988	-5.18	253	253	245
0.798	-0.539	-5.15	36	33	28
0.71	0.211	-4.67	49	40	33
0.23	0.454	-4.69	64	69	72
0.0196	0.388	-4.64	139	114	83
0.937	0.339	-4.83	94	95	100
0.117	0.145	-4.63	254	255	255
0.711	-0.526	-5.11	25	20	17
0.564	-0.535	-5.05	74	61	52
0.924	-0.0418	-4.92	155	135	102
0.266	-0.0868	-4.76	92	82	72
0.927	-0.162	-4.95	141	117	93
0.115	0.51	-4.78	92	96	99
0.837	0.267	-4.68	128	89	46
0.196	-0.429	-4.97	112	97	90
0.189	0.318	-4.67	119	121	118
0.537	-0.507	-5.04	52	47	41
0.126	-0.269	-4.84	224	152	67
0.0971	0.365	-4.73	97	97	97
-0.454	1.01	-5.22	254	254	252
-0.585	-0.296	-5.56	255	254	251
0.943	0.282	-4.82	87	88	90
0.458	0.209	-4.65	95	96	98
0.0525	0.669	-4.87	89	87	88
0.804	-0.55	-5.15	64	63	59
-0.281	-0.45	-5.32	40	35	31
0.547	-0.743	-5.13	70	71	75
0.218	-0.0494	-4.76	89	79	70
-0.0109	0.226	-4.74	88	88	86
0.196	-0.0399	-4.71	117	97	72
0.607	0.392	-4.73	104	109	113
-0.374	0.86	-5.16	221	69	46
0.449	0.152	-4.62	84	84	86
-0.0109	0.46	-4.64	109	91	67
0.452	0.286	-4.66	98	102	105
-0.812	-0.293	-5.53	93	93	95
-0.18	0.919	-5.27	242	79	44
0.111	0.368	-4.72	72	70	71
0.75	-0.701	-5.23	146	120	87
0.935	0.235	-4.77	72	71	69
-0.0058	0.477	-4.63	253	253	243
0.288	-0.569	-5	142	102	43
-0.177	-0.141	-5.04	253	255	231
0.841	-0.136	-4.91	71	60	54
0.208	-0.0877	-4.77	154	143	123
-0.251	0.848	-5.14	146	33	17
0.635	0.433	-4.74	106	106	108
-0.161	0.346	-4.83	253	252	221
0.736	0.173	-4.73	47	42	38
0.791	-0.623	-5.19	68	60	57
-0.464	0.489	-5.07	193	78	49
0.168	-0.84	-4.96	123	122	117
0.321	0.575	-4.8	27	27	27
0.119	0.22	-4.67	99	102	109
0.989	0.606	-4.91	255	255	255
0.267	-0.0594	-4.75	90	80	70
0.628	0.412	-4.73	107	106	111
0.774	-0.334	-5	115	71	24
0.057	0.234	-4.7	98	100	99
0.196	-0.835	-4.9	128	124	121
-0.692	0.664	-5.25	215	81	52
-0.143	-0.162	-5.02	254	253	223
0.186	0.182	-4.57	133	108	77
0.226	-0.498	-4.99	67	57	56
-0.455	0.623	-5	254	255	253
0.377	0.0237	-4.59	159	113	54
0.524	0.195	-4.66	90	96	96
-0.28	0.195	-5.02	84	71	54
0.23	-0.418	-4.96	91	80	78
-0.0076	0.0334	-4.85	61	48	39
0.336	0.0332	-4.73	165	130	66
0.231	-0.272	-4.75	208	147	67
0.299	-0.843	-4.93	115	115	117
-0.0226	-0.612	-5.1	64	50	37
0.823	0.349	-4.62	254	255	255
0.739	-0.0653	-4.86	58	45	39
-0.296	-0.352	-5.27	116	99	79
-0.234	0.849	-5.15	149	32	14
-0.393	0.0145	-5.18	241	240	236
0.323	0.154	-4.57	211	184	137
0.899	0.404	-4.83	69	68	73
0.843	-0.503	-5.15	109	92	84
0.215	-0.08	-4.78	74	63	57
0.194	-0.789	-4.91	108	106	107
-0.572	0.551	-5.14	217	82	60
-0.491	-0.382	-5.43	113	113	113
0.579	-0.794	-5.11	97	92	96
0.249	0.164	-4.57	183	162	119
0.552	0.121	-4.66	71	72	74
0.339	0.146	-4.56	155	131	97
0.961	0.555	-4.84	114	118	117
0.218	-0.681	-5.11	16	18	17
0.956	-0.706	-5.26	250	254	255
0.559	0.331	-4.7	91	95	98
0.441	-0.517	-4.98	107	73	38
0.274	0.531	-4.71	116	120	119
0.0793	0.243	-4.7	102	103	105
-0.173	-0.417	-5.2	47	43	42
0.279	-0.0776	-4.75	111	98	79
0.499	-0.521	-5.04	37	32	26
0.946	-0.0411	-4.88	102	86	60
0.945	0.186	-4.81	85	89	88
-0.013	0.389	-4.66	178	123	66
-0.799	-0.304	-5.54	101	101	103
-0.535	0.099	-5.28	222	221	216
0.564	0.38	-4.7	84	85	87
0.746	-0.4	-5.05	36	27	22
-0.461	0.524	-5.07	155	135	124
0.0766	0.0961	-4.65	174	141	96
0.902	0.508	-4.79	27	27	27
-0.407	0.658	-4.99	192	193	187
0.484	0.232	-4.65	103	106	111
0.74	-0.151	-4.9	143	144	130
-0.163	-0.495	-5.24	22	22	22
-0.523	0.797	-5.17	188	53	33
0.72	-0.14	-4.88	79	69	59
0.955	0.149	-4.81	80	80	82
-0.498	0.822	-5.22	227	79	51
0.755	-0.766	-5.14	127	123	124
0.359	-0.561	-7.08	89	80	71
0.707	-0.571	-5.15	22	21	19
0.548	0.178	-4.66	89	87	88
0.731	-0.57	-5.16	30	24	26
0.913	-0.678	-5.27	50	40	31
0.549	-0.405	-4.99	67	55	41
-0.312	0.675	-5.05	193	62	34
0.532	0.235	-4.67	104	100	99
0.933	0.377	-4.83	94	97	102
0.22	0.389	-4.7	111	114	119
0.0241	0.331	-4.68	103	74	40
0.0321	0.453	-4.72	96	101	97
0.28	-0.541	-4.98	94	62	37
0.57	-0.102	-4.8	124	118	94
0.519	-0.433	-4.99	116	99	83
0.117	0.353	-4.71	104	104	104
-0.0411	0.62	-4.89	107	111	110
-0.269	-0.196	-5.16	141	126	87
0.648	-0.749	-5.15	67	66	71
0.594	0.371	-4.71	97	98	100
-0.683	0.449	-5.27	126	116	104
-0.454	0.34	-5.1	92	82	81
-0.09	-0.195	-5	149	93	34
0.843	-0.503	-5.15	109	92	84
0.207	0.152	-4.59	168	150	114
0.458	0.209	-4.65	95	96	98
0.923	-0.0838	-4.93	107	101	87
0.657	-0.527	-5.07	125	81	42
0.86	0.123	-4.76	77	75	80
0.168	-0.84	-4.96	123	122	117
0.522	-0.409	-4.98	109	97	81
0.189	-0.141	-4.79	138	111	82
-0.515	0.103	-5.28	75	71	72
-0.473	0.578	-5.05	140	122	100
0.772	0.0344	-4.84	122	88	43
-0.104	0.333	-4.8	145	125	88
-0.16	-0.424	-5.19	111	111	109
0.111	-0.0381	-4.76	220	150	65
0.123	0.46	-4.74	90	91	96
0.72	0.28	-4.61	238	210	162
0.242	-0.537	-4.98	255	254	206
0.522	-0.409	-4.98	109	97	81
-0.153	0.0192	-5	185	174	154
0.485	0.21	-4.65	94	94	94
0.283	-0.838	-4.93	132	126	130
-0.552	0.643	-5.11	65	46	39
0.769	-0.472	-5.1	109	95	84
0.535	-0.311	-4.88	152	101	44
-0.0287	-0.342	-4.99	255	251	189
0.254	-0.795	-4.99	103	99	100
0.209	0.541	-4.73	98	104	104
0.758	-0.634	-5.19	84	80	71
0.933	0.377	-4.83	94	97	102
0.594	0.371	-4.71	97	98	100
0.881	-0.164	-4.96	66	53	47
-0.00979	0.517	-4.66	64	66	65
0.627	0.451	-4.73	101	106	109
0.477	0.0959	-4.63	88	88	90
-0.422	-0.412	-5.42	25	23	24
0.222	-0.79	-4.99	103	102	98
0.499	-0.521	-5.04	37	32	26
-0.722	-0.194	-5.63	16	11	8
0.977	0.131	-4.8	78	73	79
0.187	-0.202	-4.83	69	55	42
0.23	-0.418	-4.96	91	80	78
-0.466	-0.0305	-5.29	201	199	186
0.111	0.368	-4.72	72	70	71
0.119	0.22	-4.67	99	102	109
0.773	0.263	-4.64	174	150	112
0.538	-0.207	-4.86	78	69	62
0.153	0.29	-4.67	99	99	101
-0.313	0.378	-4.95	36	28	25
0.362	-0.795	-5.03	128	132	133
0.223	-0.147	-4.8	245	238	220
0.122	-0.73	-5.06	89	90	95
0.796	-0.567	-5.17	29	23	23
0.88	-0.0463	-4.9	135	114	83
-0.0847	0.31	-4.77	253	254	240
0.192	0.398	-4.69	102	106	105
-0.151	0.0495	-4.98	165	160	140
0.896	0.165	-4.77	74	75	77
0.645	0.25	-4.6	128	89	48
0.126	0.548	-4.78	96	97	99
-0.511	1.01	-5.25	154	174	181
-0.0181	-0.29	-4.98	197	138	70
0.853	0.153	-4.75	49	44	40
0.169	-0.36	-4.92	105	78	59
0.614	0.383	-4.72	63	66	71
0.102	0.385	-4.74	85	87	84
0.968	0.15	-4.79	77	73	74
0.821	0.232	-4.69	143	100	55
0.201	0.219	-4.56	95	99	100
0.678	0.319	-4.56	126	109	81
0.485	0.21	-4.65	94	94	94
0.477	0.0959	-4.63	88	88	90
-0.312	0.877	-5.16	243	91	54
0.658	-0.808	-5.11	105	103	108
0.776	-0.135	-4.9	154	124	90
-0.0507	0.286	-4.75	254	252	255
-0.284	-0.48	-5.33	28	24	21
0.892	-0.182	-4.98	70	61	56
0.804	-0.55	-5.15	64	63	59
0.825	-0.742	-5.22	69	71	68
0.00111	-0.414	-5	166	119	51
-0.641	0.777	-5.2	36	26	27
0.911	0.194	-4.79	50	50	52
0.246	-0.516	-5	225	218	200
0.264	0.437	-4.69	123	127	130
0.922	0.166	-4.8	89	87	90
-0.297	0.0443	-5.11	109	91	69
0.764	0.461	-4.78	99	100	104
-0.0287	-0.342	-4.99	255	251	189
0.781	-0.652	-5.21	60	51	46
0.922	0.166	-4.8	89	87	90
0.0296	0.205	-4.71	98	98	100
0.037	0.299	-4.74	44	41	36
0.838	-0.552	-5.18	96	85	79
0.501	0.328	-4.68	88	92	95
0.26	-0.779	-5.01	93	94	96
0.513	0.466	-4.7	101	96	102
0.293	0.746	-4.76	93	93	83
0.782	0.383	-4.61	253	253	255
0.782	0.383	-4.61	253	253	255
0.478	0.373	-4.67	72	73	75
0.238	0.178	-4.58	172	153	110
-0.18	0.919	-5.27	242	79	44
0.723	-0.212	-4.93	169	167	152
0.0268	0.626	-4.86	113	114	118
0.333	-0.777	-5.03	86	84	85
0.146	-0.502	-4.99	144	121	87
0.0296	0.205	-4.71	98	98	100
0.125	0.618	-4.83	116	117	121
-0.00711	0.478	-4.64	253	253	251
0.74	-0.748	-5.18	88	87	85
0.106	0.35	-4.72	63	67	68
-0.753	0.311	-5.41	90	85	82
0.702	-0.203	-4.91	51	41	31
-0.501	0.368	-5.14	92	85	77
0.879	-0.19	-4.97	52	45	35
-0.531	0.739	-5.13	251	238	230
0.492	0.155	-4.64	93	101	103
0.276	0.475	-4.71	136	137	141
0.674	-0.0893	-4.83	54	44	43
-0.543	0.186	-5.26	96	91	88
0.513	-0.0704	-4.77	151	127	93
0.939	0.32	-4.83	96	99	104
-0.0187	0.263	-4.73	255	247	208
-0.604	0.0287	-5.42	161	146	127
0.236	-0.494	-5	82	75	69
0.156	-0.347	-4.9	141	109	84
0.753	0.312	-4.62	137	100	48
0.0998	0.231	-4.68	99	100	102
0.639	-0.396	-5.04	148	95	45
0.0526	-0.733	-5.03	101	101	103
0.057	0.234	-4.7	98	100	99
0.117	0.126	-4.63	85	65	41
0.325	-0.0255	-4.68	225	190	136
0.325	0.406	-4.68	161	161	163
0.2	0.462	-4.72	94	95	97
0.431	0.461	-4.69	111	110	115
0.812	-0.499	-5.14	41	40	35
0.216	-0.0666	-4.73	91	78	72
-0.143	-0.162	-5.02	254	253	223
0.805	0.32	-4.63	142	94	45
0.251	-0.0956	-4.77	190	172	152
0.801	0.187	-4.71	174	153	122
-0.00789	0.86	-5.12	41	43	42
0.377	0.298	-4.66	107	106	111
0.516	0.213	-4.66	94	100	100
-0.737	0.445	-5.33	77	68	69
0.501	-0.533	-5.05	115	108	98
0.508	0.233	-4.66	106	107	111
0.0587	0.254	-4.71	99	105	105
0.276	0.475	-4.71	136	137	141
0.735	-0.588	-5.16	111	104	98
0.293	-0.787	-5.01	97	97	99
-0.543	0.73	-5.13	249	239	230
0.115	0.488	-4.77	94	103	102
0.24	-0.0846	-4.77	92	81	77
-0.711	0.0576	-5.51	31	22	17
0.882	-0.145	-4.95	49	38	32
0.735	0.0216	-4.75	102	76	43
0.0998	0.231	-4.68	99	100	102
0.744	-0.779	-5.13	87	85	88
0.486	0.363	-4.66	106	108	107
0.582	-0.386	-4.98	103	78	56
-0.0396	0.032	-4.84	154	140	105
0.0587	0.254	-4.71	99	105	105
0.676	0.339	-4.56	255	254	255
0.138	0.342	-4.7	112	114	111
-0.0461	0.962	-5.08	109	103	103
0.503	0.251	-4.67	99	103	102
-0.737	-0.0783	-5.59	115	98	82
0.769	0.272	-4.64	80	51	21
-0.422	-0.411	-5.42	25	23	24
-0.133	-0.67	-5.11	97	97	97
-0.839	-0.278	-5.55	97	95	96
0.73	-0.172	-4.92	70	65	59
-0.484	-0.365	-5.47	244	255	247
0.165	0.525	-4.74	93	97	100
-0.101	0.655	-4.94	94	96	95
0.769	0.272	-4.64	80	51	21
0.34	0.146	-4.56	170	146	112
-0.292	0.769	-5.06	224	63	35
0.278	-0.173	-4.81	116	102	91
0.468	0.153	-4.63	89	92	97
0.104	0.251	-4.69	98	96	97
0.482	-0.516	-5.01	47	40	32
0.61	0.453	-4.73	108	110	109
0.931	0.483	-4.84	55	56	60
0.484	0.232	-4.65	103	106	111
0.548	0.178	-4.66	89	87	88
0.532	0.235	-4.67	104	100	99
0.523	-0.519	-5.03	53	44	37
-0.204	0.237	-4.92	198	138	68
0.00243	0.251	-4.73	58	53	47
0.133	0.456	-4.75	103	107	108
0.526	-0.215	-4.86	41	33	31
-0.614	-0.288	-5.56	255	255	250
0.187	0.379	-4.68	112	113	115
-0.371	0.646	-5.03	232	224	213
-0.707	0.635	-5.24	207	71	49
0.205	0.502	-4.72	101	102	106
0.143	-0.695	-5.1	13	13	11
0.109	0.292	-4.7	108	109	113
0.67	-0.72	-5.19	144	114	80
0.991	-0.821	-5.12	68	46	33
0.631	0.442	-4.74	69	70	72
0.0588	-0.648	-5.08	68	50	36
0.803	0.209	-4.7	168	152	116
-0.313	0.696	-5.06	219	75	51
-0.495	0.821	-5.21	239	94	65
0.631	0.442	-4.74	69	70	72
0.481	-0.00758	-4.72	134	97	44
0.795	-0.583	-5.18	115	102	96
0.512	0.384	-4.56	66	67	71
0.0138	0.132	-4.73	164	132	85
0.259	-0.137	-4.8	94	76	64
0.879	-0.19	-4.97	52	45	35
0.349	0.286	-4.67	114	122	125
0.564	0.38	-4.7	84	85	87
0.516	0.418	-4.7	66	67	71
-0.0295	-0.412	-5.04	95	59	25
-0.789	-0.211	-5.68	106	101	107
0.332	0.226	-4.52	129	130	134
0.139	-0.539	-4.99	108	88	63
0.679	-0.7	-5.19	43	33	24
0.477	0.324	-4.66	106	107	109
0.128	0.435	-4.73	98	104	104
0.517	0.348	-4.69	96	97	101
0.528	0.216	-4.67	96	100	101
0.196	-0.213	-4.85	214	193	146
0.465	-0.379	-4.9	236	207	149
-0.309	0.632	-5.05	184	50	23
0.317	-0.738	-5.06	54	41	32
-0.176	-0.162	-5.05	114	82	59
-0.459	0.868	-5.2	217	61	36
0.0944	0.137	-4.62	87	81	81
0.764	0.461	-4.78	99	100	104
0.608	-0.0855	-4.77	129	87	47
-0.391	0.915	-5.23	244	95	55
0.898	-0.726	-5.25	96	96	98
0.718	-0.294	-4.93	157	110	58
0.493	0.404	-4.68	102	105	110
0.691	0.3	-4.57	132	88	41
-0.101	0.769	-4.91	93	102	99
0.388	0.411	-4.68	118	119	123
0.557	-0.341	-4.91	159	109	50
0.553	0.429	-4.72	90	91	95
0.157	-0.506	-5	53	42	36
0.349	0.149	-4.55	152	133	93
0.613	0.44	-4.73	68	68	70
0.0988	-0.814	-4.91	125	121	122
0.484	-0.22	-4.82	38	29	24
0.478	0.373	-4.67	72	73	75
0.159	-0.795	-4.98	104	102	105
0.39	0.237	-4.65	117	118	122
0.196	0.173	-4.59	181	157	119
0.838	-0.552	-5.18	96	85	79
0.495	0.355	-4.67	69	70	72
0.341	0.305	-4.66	111	117	117
0.614	-0.821	-5.04	104	106	105
0.804	-0.719	-5.28	149	116	81
0.836	-0.196	-4.94	30	25	19
-0.0366	-0.31	-4.99	39	32	16
0.417	0.0829	-4.59	255	255	251
0.651	0.475	-4.75	109	108	114
0.651	0.475	-4.75	109	108	114
0.253	0.554	-4.75	30	32	31
-0.307	0.711	-5.08	172	43	21
0.701	-0.0522	-4.84	121	97	63
0.989	0.104	-4.81	68	67	65
0.264	0.56	-4.75	103	105	102
0.183	-0.222	-4.84	255	254	193
0.0222	0.314	-4.71	102	72	38
0.394	0.11	-4.6	92	83	84
0.924	0.205	-4.79	91	93	92
0.37	-0.793	-5.09	84	79	83
0.486	0.363	-4.66	106	108	107
0.207	-0.186	-4.83	68	61	55
0.927	0.241	-4.81	102	98	99
0.602	0.711	-5.33	254	255	255
0.655	-0.631	-5.14	155	123	85
0.117	0.389	-4.73	72	73	77
0.927	0.263	-4.81	96	94	97
0.726	-0.0846	-4.86	51	42	37
0.825	0.287	-4.64	245	224	171
0.709	0.538	-4.82	78	81	86
-0.326	0.792	-5.11	244	80	45
0.277	0.492	-4.7	123	124	126
0.0526	-0.733	-5.03	101	101	103
0.154	0.466	-4.74	108	106	109
-0.0379	0.641	-4.9	104	108	111
-0.82	-0.114	-5.7	81	74	66
0.419	0.317	-4.65	69	70	75
0.853	0.279	-4.66	136	115	84
-0.126	-0.203	-5.02	254	253	248
0.725	-0.387	-5.01	172	137	83
-0.24	0.87	-5.13	28	18	17
0.823	-0.217	-4.95	57	49	36
0.513	0.508	-4.73	27	27	25
-0.0215	-0.357	-5	102	61	29
0.682	-0.159	-4.89	44	37	29
0.19	-0.221	-4.82	255	251	198
0.0604	-0.699	-5.11	89	89	91
0.545	0.445	-4.7	105	109	112
-0.0379	0.641	-4.9	104	108	111
0.321	0.366	-4.67	113	122	121
0.788	-0.508	-5.13	106	89	79
-0.265	0.754	-5.07	244	91	60
0.349	0.286	-4.67	114	122	125
0.382	0.431	-4.67	133	138	141
0.29	-0.365	-4.88	255	242	185
0.397	-0.653	-5.04	111	74	47
0.61	0.111	-4.68	30	28	29
0.468	-0.837	-5	130	128	131
0.548	-0.529	-5.06	158	154	145
0.0157	0.66	-4.88	42	37	41
-0.0142	0.65	-4.89	92	96	99
0.101	0.417	-4.75	28	24	21
0.946	0.583	-4.88	98	104	104
0.341	0.305	-4.66	111	117	117
0.468	0.153	-4.63	89	92	97
0.58	-0.546	-5.04	114	98	73
-0.545	0.986	-5.24	101	115	116
0.887	-0.741	-5.24	117	112	116
0.505	-0.747	-5.03	64	64	64
0.738	0.671	-5.09	255	255	255
1	0.0511	-4.87	117	83	38
0.438	-0.568	-5.01	101	72	42
0.263	0.418	-4.69	136	141	144
-0.151	-0.578	-5.23	95	94	99
0.263	0.418	-4.69	136	141	144
0.369	0.376	-4.67	114	120	120
0.88	0.431	-4.81	103	104	108
0.88	0.431	-4.81	103	104	108
0.504	-0.188	-4.84	71	49	36
0.934	-0.195	-4.97	160	135	104
0.106	0.435	-4.75	131	131	131
-0.737	0.446	-5.33	81	75	75
-0.00468	0.112	-4.74	158	111	55
-0.0675	-0.428	-5.07	141	121	94
0.244	0.403	-4.68	120	130	132
0.882	-0.213	-4.96	131	110	89
0.508	0.233	-4.66	106	107	111
-0.761	0.649	-5.26	255	254	255
0.841	-0.731	-5.25	70	70	70
0.225	-0.512	-5.01	186	182	171
0.267	-0.551	-4.98	255	253	221
0.493	0.404	-4.68	102	105	110
0.405	0.446	-4.68	120	121	125
-0.0522	-0.122	-4.91	255	254	240
0.733	-0.61	-5.17	54	46	43
0.188	0.2	-4.56	251	255	252
0.309	-0.789	-5.01	100	102	101
0.367	-0.639	-5.02	125	86	45
0.0537	0.0585	-4.73	152	118	57
0.67	-0.72	-5.19	144	114	80
0.628	0.142	-4.66	86	62	26
0.67	0.16	-4.68	36	31	28
0.259	0.523	-4.7	43	45	42
0.567	-0.744	-5.15	78	79	81
-0.134	-0.179	-5.02	109	91	51
0.0157	0.0993	-4.75	136	98	51
-0.237	-0.525	-5.31	94	97	102
-0.0341	-0.369	-5.01	127	104	73
0.601	-0.37	-4.95	234	208	159
0.721	0.174	-4.69	61	52	45
0.0373	0.647	-4.85	36	31	35
0.496	0.508	-4.73	35	35	35
0.61	0.111	-4.68	31	29	32
-0.512	1.04	-5.22	255	255	253
0.517	0.452	-4.7	58	59	63
-0.601	-0.278	-5.56	99	95	94
-0.0787	0.737	-4.96	21	15	15
0.924	0.205	-4.79	91	93	92
0.395	0.481	-4.81	137	137	139
0.266	-0.188	-4.82	118	104	93
0.725	-0.696	-5.2	124	101	67
0.184	-0.221	-4.83	255	251	190
-0.669	-0.0766	-5.51	210	210	208
0.205	-0.18	-4.81	80	71	62
0.37	0.279	-4.65	128	134	130
0.253	-0.762	-5.07	87	87	89
0.19	-0.745	-5.05	91	90	95
0.264	0.56	-4.75	103	105	102
0.91	0.433	-4.83	107	108	113
0.74	0.278	-4.61	135	115	80
0.0149	-0.809	-4.91	130	129	127
0.541	0.469	-4.71	94	102	104
0.229	0.238	-4.58	79	79	79
0.741	-0.221	-4.93	91	78	61
-0.458	0.407	-5.11	135	127	104
0.344	-0.65	-5.02	207	157	106
0.713	-0.781	-5.13	88	86	89
0.358	0.166	-4.55	255	255	253
0.37	0.279	-4.65	128	134	130
0.207	-0.625	-5.06	100	74	51
0.0513	-0.807	-4.92	108	106	107
-0.0826	0.793	-5.02	101	104	109
0.153	-0.337	-4.9	255	251	192
0.898	0.451	-4.83	101	99	104
0.395	-0.749	-5.1	31	27	24
0.79	-0.664	-5.23	113	105	102
0.745	-0.237	-4.92	255	248	191
0.713	0.27	-4.62	94	64	26
0.731	0.155	-4.73	134	122	98
0.91	0.433	-4.83	107	108	113
0.519	0.0355	-4.65	156	125	94
0.195	-0.505	-5	206	197	190
0.765	0.156	-4.73	96	79	59
-0.857	-0.153	-5.71	255	255	255
0.725	-0.696	-5.2	124	101	67
0.517	0.452	-4.7	58	59	63
0.0572	-0.688	-5.1	37	32	28
-0.0873	0.729	-4.96	120	120	118
0.7	0.151	-4.7	71	59	45
-0.00629	0.86	-5.11	42	42	42
1.04	0.137	-4.8	255	255	255
0.674	-0.73	-5.18	30	22	19
0.11	0.401	-4.74	89	89	91
0.494	-0.7	-5.14	15	14	12
-0.101	0.759	-4.93	109	113	112
0.368	0.0409	-4.49	173	147	112
0.432	0.0656	-4.59	83	83	85
0.499	-0.00442	-4.74	129	86	41
-0.322	0.743	-5.08	241	81	49
0.104	-0.6	-5.06	184	140	93
-0.125	0.329	-4.81	253	255	250
0.204	-0.584	-4.95	113	80	39
0.257	0.0626	-4.63	175	152	108
0.734	0.286	-4.62	255	229	174
0.357	-0.849	-4.93	147	142	146
0.917	-0.209	-4.99	98	82	66
0.218	0.546	-4.73	40	40	40
0.311	0.111	-4.59	151	131	98
-0.894	-0.248	-5.6	118	115	110
0.109	-0.697	-5.09	40	36	33
0.312	0.523	-4.75	117	119	118
0.169	-0.671	-5.11	13	11	12
0.108	-0.727	-5.06	87	87	89
0.181	0.0152	-4.7	138	94	45
-0.824	-0.0164	-5.65	255	255	253
0.635	0.135	-4.68	255	230	183
0.765	-0.0353	-4.81	149	126	94
0.108	-0.709	-5.1	87	88	92
0.514	-0.541	-5.05	75	57	45
0.585	-0.558	-5.04	234	209	155
0.592	0.134	-4.68	48	48	48
0.91	-0.819	-5.13	145	138	145
-0.459	0.868	-5.2	217	61	36
-0.368	-0.0411	-5.2	179	125	61
0.52	0.676	-5.01	138	125	93
-0.0955	0.699	-4.95	97	101	100
0.983	0.0246	-4.88	122	85	43
0.809	0.485	-4.8	107	102	109
0.519	-0.697	-5.15	19	15	14
0.0362	-0.7	-5.09	93	93	93
1.03	0.156	-4.8	83	78	74
0.417	0.0402	-4.61	124	101	60
0.947	-0.293	-5.05	150	97	45
0.837	0.486	-4.81	112	111	116
0.292	-0.752	-5.06	91	97	95
0.755	0.479	-4.77	112	111	116
0.549	-0.786	-5.08	108	108	110
0.828	-0.731	-5.23	71	69	70
0.12	0.418	-4.74	90	96	96
-0.544	0.917	-5.27	221	76	49
-0.523	0.979	-5.24	23	13	14
0.479	-0.759	-5.11	68	68	70
0.629	-0.74	-5.17	76	77	79
0.967	-0.406	-5.11	144	91	41
0.622	0.474	-4.75	102	105	110
-0.12	0.664	-4.95	100	100	100
-0.894	-0.248	-5.6	118	115	110
-0.524	0.948	-5.26	241	96	65
0.364	0.0416	-4.68	163	141	102
0.749	0.157	-4.72	109	94	71
0.507	-0.731	-5.15	18	18	18
0.22	-0.856	-4.88	144	140	137
-0.824	-0.307	-5.53	119	119	119
0.261	-0.748	-5.07	97	93	92
0.457	-0.565	-5	234	206	156
-0.113	0.682	-4.95	86	90	93
0.806	0.145	-4.73	253	236	192
0.069	-0.705	-5.09	99	100	102
0.494	-0.764	-5.14	66	66	68
0.761	0.484	-4.79	107	106	112
0.393	-0.852	-4.95	141	139	144
0.975	-0.335	-5.09	137	86	33
0.126	-0.72	-5.09	86	87	91
-0.524	0.976	-5.23	29	19	17
0.00377	0.824	-5.12	110	105	109
0.549	-0.786	-5.08	116	116	118
-0.0538	0.783	-4.98	99	104	107
0.595	0.471	-4.72	93	94	98
0.181	-0.828	-4.95	189	185	184
0.655	-0.78	-5.1	113	111	116
0.0982	-0.711	-5.08	89	91	90
0.459	-0.732	-5.11	11	11	9
0.11	-0.844	-4.89	138	134	133
0.162	-0.853	-4.89	136	133	128
0.44	-0.765	-5.11	93	88	94
