ply
format ascii 1.0
comment written by Chenxi
element vertex 967
property float32 x
property float32 y
property float32 z
property uchar red
property uchar green
property uchar blue
end_header
2.74	1.52	-28.4	86	90	93
-2.5	1.25	15.6	49	46	39
-0.816	-0.432	17.1	211	189	131
0.23	0.0581	4.05	176	118	54
0.0806	-0.0881	5.69	212	151	68
0.826	-0.108	-4.59	61	52	47
0.242	-0.28	3.52	83	35	21
1.57	1.51	-13.7	80	81	85
0.334	0.0488	2.77	59	56	47
0.816	-0.608	-5.02	59	50	35
0.874	-0.769	-5.97	68	57	51
0.299	-0.0258	3.11	36	32	33
0.346	-0.117	2.45	190	175	154
0.945	0.769	-6.18	91	97	97
0.0766	-0.535	5.37	217	151	67
-3.58	-1.39	50.6	189	167	126
1.21	0.776	-9.1	70	73	78
0.342	0.134	2.76	107	107	107
0.133	-0.0954	5.12	79	68	62
0.3	-0.33	2.85	110	29	12
0.259	-0.623	3.41	55	31	21
0.343	-0.0763	2.53	132	119	103
0.784	0.105	-3.78	54	56	51
0.235	0.102	3.96	201	146	63
0.175	0.449	5.12	55	50	46
1.24	0.748	-9.5	102	103	107
0.286	0.193	3.48	189	174	155
0.261	-0.662	3.37	108	89	85
0.334	-0.207	2.51	49	46	41
0.13	0.644	5.84	52	51	49
-0.776	-1.49	16.1	64	64	66
1.49	0.947	-12.6	99	102	107
0.839	-0.497	-5.21	34	29	26
0.93	-0.688	-6.63	89	84	78
0.318	-0.306	2.63	103	25	12
0.875	0.302	-4.74	255	252	252
-3.51	0.748	52.8	187	163	117
0.207	-0.364	3.83	26	24	25
-1.17	-2.88	20.9	181	161	124
0.942	-0.662	-6.73	30	22	19
0.162	0.429	5.26	111	111	109
0.323	-0.0905	2.76	177	169	148
48.9	12.3	-605	174	149	108
0.788	0.112	-3.84	40	40	40
-0.626	0.441	15.2	127	106	87
0.101	0.684	6.22	89	77	61
0.343	-0.0763	2.53	132	119	103
-0.195	-1.05	8.98	108	112	113
0.194	-0.689	4.27	250	115	68
0.886	0.608	-5.09	122	109	90
1.41	0.792	-11.5	31	27	26
0.231	0.119	4.06	31	24	16
0.264	-0.565	3.32	252	101	70
0.303	-0.0136	3.07	187	181	167
0.903	0.255	-5.15	143	100	55
0.332	-0.252	2.47	178	163	142
-0.154	-0.504	8.38	105	107	106
0.0295	0.178	6.64	254	255	223
1.76	-0.626	-17.4	63	53	44
0.963	1.01	-6.24	12	11	9
0.23	0.147	4.1	210	189	142
-1.75	-1	27.9	181	157	113
0.846	-0.475	-5.29	121	102	85
-0.0961	-0.592	7.73	88	58	32
0.769	0.0617	-3.63	152	117	79
0.264	-0.404	3.2	220	219	214
0.268	-0.324	3.22	110	101	92
0.113	-0.409	5.03	202	180	139
0.0673	-0.485	5.49	255	255	230
0.945	0.266	-5.71	48	38	36
0.3	-0.429	2.78	33	24	25
11	4	-131	127	125	130
0.246	-0.444	3.47	242	228	219
0.838	-0.522	-5.24	39	36	29
0.194	-0.689	4.27	250	115	68
0.229	0.107	4.09	52	41	35
1.16	0.00067	-8.68	137	91	41
-0.173	-0.00867	8.83	230	157	63
-9.4	4.92	133	222	150	68
0.0198	-1.26	6.54	72	70	73
-0.13	-0.657	8.1	67	50	32
0.19	0.0767	4.52	224	154	69
0.255	-0.663	3.45	253	253	251
0.804	-0.0327	-4.22	135	116	86
1.53	-3.49	38.4	94	99	95
0.313	0.103	3.11	57	39	25
0.857	-0.55	-5.51	32	27	24
0.0691	-0.498	5.46	124	83	39
11	4	-131	127	125	130
2.16	-2.74	-24.7	105	72	37
0.928	0.721	-5.8	123	121	122
0.21	0.187	4.42	67	60	50
1.19	0.784	-8.77	77	79	78
-0.168	-1.18	8.78	82	86	89
-0.906	1.67	20.4	177	166	148
0.286	0.127	3.43	94	78	79
0.919	0.31	-5.32	153	106	52
-7.83	1.68	109	214	151	72
0.0825	-1.01	5.81	152	149	142
-1.68	-0.233	27.8	182	131	65
-1.78	-3.58	28.9	52	49	42
0.237	-0.192	3.69	203	144	76
0.14	-0.469	4.6	255	246	194
1.9	2	-17.6	26	24	25
0.301	0.209	3.32	255	252	251
-0.759	0.454	17.1	73	66	60
0.921	0.414	-5.22	66	63	70
1.43	0.476	-11.8	44	42	43
0.246	-0.444	3.47	242	228	219
0.179	0.394	5.01	112	113	105
0.986	0.285	-6.23	44	36	34
0.265	-0.165	3.38	80	77	72
2.63	2.08	-26.8	101	105	108
0.146	-0.447	4.58	129	87	47
0.173	-0.778	4.58	244	80	45
0.322	-0.103	2.76	166	154	132
0.352	0.0821	2.58	100	96	93
0.217	-0.0139	4.12	254	255	212
0.315	-0.2	2.73	202	197	193
1.01	-0.424	-7.16	156	105	50
5.33	-7.68	-70.9	142	89	37
0.356	0.0238	2.49	155	134	115
0.332	-0.226	2.5	55	51	48
0.873	0.639	-4.89	254	253	255
0.297	0.22	3.4	103	97	99
0.0691	-0.498	5.46	124	83	39
0.207	0.223	4.51	22	21	17
0.877	-0.37	-5.48	41	34	26
1.3	0.229	-10.2	66	66	64
0.348	0.0109	2.55	216	213	206
-0.0849	-0.0316	7.74	146	105	59
0.901	-0.755	-6.29	79	72	64
0.218	0.371	4.52	27	22	19
0.938	-0.213	-6.13	141	121	94
0.128	0.646	5.85	47	47	45
1.92	1.88	-18	76	80	81
0.116	0.595	5.94	49	48	44
0.805	-0.575	-4.81	54	40	27
1.22	-1.6	-11.4	49	40	33
0.774	-0.32	-4.18	138	88	39
0.217	-0.0139	4.12	254	255	212
0.308	-0.318	2.74	141	133	120
0.835	-0.543	-5.24	34	28	28
0.838	-0.547	-5.26	34	28	28
-0.999	-1.68	18.9	102	110	112
0.207	-0.202	4.01	214	187	132
0.207	-0.202	4.01	214	187	132
0.266	-0.651	3.27	84	77	71
1.47	-2.1	-15.1	26	25	23
-0.818	-1.43	16.5	118	121	126
1.19	0.404	-8.62	115	86	46
-0.11	-0.69	7.64	123	127	128
0.914	-0.676	-6.4	33	28	25
1.24	-1.79	-11.4	108	104	105
0.0623	-1.02	6.08	81	61	50
0.259	-0.339	3.34	70	41	27
0.268	-0.307	3.24	111	33	20
0.264	-0.225	3.33	115	112	105
1.39	-0.273	-12.1	57	44	38
-0.0901	0.323	8.17	225	155	67
-0.00925	-1.24	6.97	31	29	32
-1.55	2.39	29.6	61	53	50
0.243	-0.244	3.56	39	31	28
0.277	-0.309	3.12	116	45	27
0.131	-0.484	4.71	115	71	32
-1.28	0.985	24.4	88	79	72
-0.832	0.67	18.3	125	106	99
-0.123	-0.829	8.03	99	103	106
0.83	0.423	-4.33	93	97	98
1.01	-0.973	-7.92	155	123	85
-2.8	-6.04	41.4	29	24	28
0.911	0.681	-5.55	38	36	39
-0.0406	-0.547	6.85	88	60	39
0.322	-0.211	2.64	137	130	120
1.01	0.365	-6.44	137	118	88
0.277	-0.309	3.12	105	32	15
1.01	0.286	-6.51	120	117	102
0.843	0.585	-4.51	228	194	149
0.247	-0.396	3.47	44	33	27
1.64	0.785	-14.4	103	98	102
0.0385	0.461	6.73	255	251	189
1.03	0.352	-6.7	70	61	54
0.208	-0.685	4.08	248	111	67
1.04	0.757	-6.92	86	90	91
-0.777	1.45	18.4	55	45	43
0.335	0.185	2.67	100	98	103
-0.0265	-0.971	6.91	86	86	88
0.824	0.114	-4.3	85	86	88
1.21	-1.03	-10.6	98	79	62
0.341	-0.0803	2.55	181	165	132
0.324	0.0564	2.9	187	170	154
1.27	-1.92	-11.9	100	100	102
1.49	0.944	-12.6	98	101	106
0.0172	-1.25	6.53	249	254	247
0.257	0.237	3.88	136	94	44
-0.709	1.77	17.9	85	80	76
0.324	-0.297	2.55	180	63	43
0.928	0.369	-5.34	142	94	45
0.336	0.0101	2.72	30	20	18
0.254	-0.322	3.39	209	65	39
1.01	-0.173	-7.09	124	107	91
0.906	0.316	-5.1	245	224	171
0.226	0.358	4.4	57	52	46
0.917	-0.838	-6.64	63	58	55
-1.03	0.704	20.8	106	88	74
0.819	-0.0661	-4.46	65	52	44
2.08	-0.409	-21	192	165	122
0.873	0.572	-4.91	57	50	40
-0.173	-0.628	8.63	111	113	112
0.162	0.462	5.3	33	32	30
0.227	0.19	4.18	115	95	71
2.72	1.72	-28	98	102	105
1.6	0.689	-14	97	99	98
0.298	0.233	3.39	40	35	32
0.368	0.1	2.25	130	130	130
0.908	-0.589	-6.23	105	87	75
0.863	0.275	-4.59	73	65	62
0.848	-0.493	-5.33	109	93	80
0.883	-0.492	-5.78	93	86	78
0.327	0.0963	2.88	169	157	145
0.11	0.808	6.04	88	89	91
0.322	0.112	2.98	54	51	46
0.879	0.631	-4.93	255	255	233
0.259	-0.339	3.34	70	41	27
-0.777	1.55	18.6	97	84	78
0.253	0.294	3.99	58	44	35
0.883	-0.542	-5.82	137	119	107
-1.3	-3.19	22.4	41	36	30
1.26	0.783	-9.67	63	66	71
0.295	-0.0179	3.17	159	146	127
-5.16	-0.566	75.8	165	125	74
0.316	-0.224	2.7	78	74	65
0.298	-0.0691	3.08	65	58	50
0.808	-0.0507	-4.29	116	99	89
0.125	-0.47	4.8	208	147	66
2.11	2.28	-20.4	102	104	103
0.249	0.344	4.08	80	73	55
0.0385	0.461	6.73	255	251	189
-0.716	-1.88	15.6	34	32	33
0.351	-0.116	2.4	255	255	253
0.332	0.0318	2.78	92	83	84
0.121	-0.516	4.8	140	93	49
0.339	0.187	2.7	100	98	103
0.0172	-1.25	6.53	249	254	247
0.355	0.135	2.46	101	101	103
-6.89	-0.681	97.1	165	130	66
0.819	-0.0661	-4.46	65	52	44
-1.02	2.23	22.4	79	73	73
0.259	-0.602	3.44	255	112	73
0.788	-0.547	-4.58	72	45	26
0.805	-0.742	-4.71	109	108	114
0.295	-0.0829	3.12	202	199	194
-0.489	-0.961	12.4	101	104	111
0.992	0.902	-6.85	255	255	255
1.14	-1.05	-9.67	79	49	21
-0.385	-0.332	11.1	144	124	89
0.209	-0.351	3.95	75	75	73
0.281	-0.297	3.07	193	78	49
1.43	0.476	-11.8	44	42	43
0.35	-0.115	2.4	255	254	255
0.839	-0.624	-5.36	56	48	45
0.275	-0.631	3.16	99	88	92
-1.91	1.38	33.1	82	69	63
1.61	-2.4	-17.2	25	24	22
2.55	0.957	-26	100	101	105
-0.57	-0.111	14.1	189	131	57
0.207	0.223	4.51	22	21	17
0.0203	-1.2	6.66	80	74	76
0.929	-0.589	-6.43	97	85	73
0.321	0.0263	2.9	149	136	119
0.0261	-0.0236	6.49	157	148	131
2.4	1.95	-23.9	98	102	105
0.232	0.421	4.33	81	82	84
1.09	0.34	-7.51	41	34	26
1.63	0.893	-14.3	105	103	104
1.4	-2.2	-13.6	113	111	116
3.73	1.34	-40.8	133	133	135
-2.22	3.14	38.9	175	150	110
-0.859	0.454	18.4	139	122	106
1.01	0.314	-6.45	67	64	57
0.866	0.268	-4.67	91	89	90
-1.25	0.975	24.1	93	82	76
0.0172	1.02	7.4	90	91	93
-0.974	0.806	20.3	76	70	58
-1.13	0.000375	21.2	144	122	83
-0.707	0.298	16.2	154	143	123
0.235	-0.417	3.65	223	73	46
0.148	-0.735	4.72	123	143	142
0.223	-0.455	3.8	244	92	55
0.156	-0.34	4.56	151	112	57
2.4	1.95	-23.9	98	102	105
-0.0218	1.22	7.76	109	110	112
0.298	-0.0691	3.08	65	58	50
0.877	-0.796	-6.03	74	55	38
0.356	0.0164	2.47	154	133	112
0.322	0.163	3.05	255	254	251
-0.863	0.567	18.6	245	238	220
0.353	0.0429	2.53	200	191	182
-0.0135	-1.34	6.99	247	255	249
-0.56	-1.04	13.4	64	68	71
0.292	-0.0568	3.18	168	156	132
1.23	0.549	-8.94	255	255	255
0.349	-0.0988	2.44	120	99	80
-0.0823	-0.0742	7.63	254	255	193
1.18	-0.539	-9.52	163	109	49
3.1	-0.351	-33.8	180	126	64
0.268	-0.625	3.26	254	254	254
2.11	2.12	-20.3	96	105	104
-0.0212	1.12	8.03	87	87	89
1.21	-0.69	-10	154	103	48
0.141	-0.879	5.12	250	92	55
1.87	0.631	-17.2	94	92	95
1.44	0.459	-12	88	84	83
1.9	2	-17.6	30	26	27
0.8	0.133	-4	55	53	56
-2.3	0.415	36.8	168	149	109
0.93	-0.688	-6.63	89	84	78
0.887	-0.323	-5.57	161	111	58
0.127	-0.764	4.95	77	82	85
1.77	0.479	-16.2	85	86	88
-0.6	-1.72	14.1	31	33	32
0.842	-0.676	-5.46	67	60	54
-4.87	3.59	73.6	211	148	68
0.838	-0.577	-5.31	44	39	36
-0.117	-0.527	7.93	98	98	98
0.267	-0.622	3.26	253	253	245
0.857	-0.578	-5.53	36	33	28
1.03	0.307	-6.79	49	40	33
-0.812	-1.6	16.5	64	69	72
-0.0278	-0.551	6.58	139	114	83
0.82	0.297	-4.22	94	95	100
-0.236	-0.292	9.31	254	255	255
0.944	-0.699	-6.79	25	20	17
1.24	-1.17	-11.1	74	61	52
0.809	-0.0366	-4.3	155	135	102
-1.48	0.483	26.5	92	82	72
0.802	-0.14	-4.28	141	117	93
-0.226	-0.998	9.36	92	96	99
0.892	0.285	-4.99	128	89	46
-0.676	1.48	17.2	112	97	90
-0.527	-0.886	13	119	121	118
1.34	-1.27	-12.6	52	47	41
-0.282	0.603	10.9	224	152	67
-0.179	-0.673	8.71	97	97	97
0.275	-0.614	3.16	254	254	252
0.321	0.163	3.05	255	254	251
0.815	0.244	-4.16	87	88	90
2.53	1.15	-25.6	95	96	98
-0.0821	-1.05	7.61	89	87	88
0.852	-0.583	-5.46	64	63	59
0.23	0.369	4.36	40	35	31
1.25	-1.69	-11.7	70	71	75
-0.786	0.178	17.1	89	79	70
0.0146	-0.301	6.31	88	88	86
-0.603	0.123	14.5	117	97	72
1.28	0.824	-9.96	104	109	113
0.252	-0.58	3.48	221	69	46
2.7	0.914	-27.8	84	84	86
0.0142	-0.599	6.03	109	91	67
2.72	1.72	-28	98	102	105
0.357	0.129	2.43	93	93	95
0.165	-0.841	4.82	242	79	44
-0.214	-0.712	9.14	72	70	71
0.884	-0.826	-6.17	146	120	87
0.819	0.206	-4.18	72	71	69
0.00764	-0.627	6.09	253	253	243
-3.03	5.98	52.6	142	102	43
0.169	0.135	4.82	253	255	231
0.857	-0.139	-5	71	60	54
-0.707	0.298	16.2	154	143	123
0.203	-0.684	4.15	146	33	17
1.2	0.818	-8.95	106	106	108
0.153	-0.328	4.59	253	252	221
0.989	0.233	-6.35	47	42	38
0.856	-0.675	-5.63	68	60	57
0.281	-0.296	3.07	193	78	49
-0.516	2.59	15.3	123	122	117
-3.16	-5.65	47.2	27	27	27
-0.24	-0.444	9.43	99	102	109
0.799	0.489	-3.96	255	255	255
-1.49	0.331	26.4	90	80	70
1.22	0.8	-9.17	107	106	111
0.897	-0.387	-5.79	115	71	24
-0.0923	-0.379	7.61	98	100	99
-0.721	3.07	18	128	124	121
0.329	-0.315	2.49	215	81	52
0.146	0.166	5.13	254	253	223
-0.509	-0.497	12.5	133	108	77
-1.01	2.22	22.3	67	57	56
0.277	-0.379	3.04	254	255	253
14.8	0.93	-180	159	113	54
1.66	0.62	-14.8	90	96	96
0.221	-0.154	3.95	84	71	54
-1.04	1.89	22.4	91	80	78
0.0104	-0.0459	6.67	61	48	39
-6.89	-0.681	97.1	165	130	66
-0.955	1.13	19.7	208	147	67
-4.65	13.1	76.7	115	115	117
0.0319	0.864	7.19	64	50	37
0.913	0.387	-5.12	254	255	255
0.959	-0.0848	-6.3	58	45	39
0.235	0.28	4.18	116	99	79
0.194	-0.705	4.28	149	32	14
0.266	-0.0098	3.5	241	240	236
-3.6	-1.72	50.8	211	184	137
0.845	0.38	-4.54	69	68	73
0.827	-0.493	-5.05	109	92	84
-0.768	0.285	17	74	63	57
-0.702	2.85	17.7	108	106	107
0.307	-0.295	2.76	217	82	60
0.3	0.233	3.32	113	113	113
1.15	-1.58	-10.1	97	92	96
-1.04	-0.686	19.1	183	162	119
1.47	0.321	-12.4	71	72	74
-5.89	-2.54	79.1	155	131	97
0.814	0.47	-4.1	114	118	117
-0.972	3.04	22.8	16	18	17
0.758	-0.56	-4.17	250	254	255
1.47	0.871	-12.4	91	95	98
2.14	-2.51	-24.2	107	73	38
-1.37	-2.66	23.6	116	120	119
-0.138	-0.423	8.18	102	103	105
0.171	0.412	5.13	47	43	42
-1.8	0.5	30.6	111	98	79
1.53	-1.6	-15.5	37	32	26
0.799	-0.0347	-4.13	102	86	60
0.811	0.16	-4.13	85	89	88
0.0169	-0.507	6.06	178	123	66
0.355	0.135	2.46	101	101	103
0.304	-0.0563	3	222	221	216
1.45	0.979	-12.1	84	85	87
0.917	-0.492	-6.21	36	27	22
0.28	-0.318	3.08	155	135	124
-0.133	-0.167	8.1	174	141	96
0.85	0.479	-4.51	27	27	27
0.263	-0.424	3.22	192	193	187
2.08	0.998	-20	103	106	111
0.949	-0.193	-6.29	143	144	130
0.165	0.502	5.31	22	22	22
0.294	-0.448	2.91	188	53	33
0.976	-0.189	-6.62	79	69	59
0.804	0.125	-4.04	80	80	82
0.288	-0.476	3.02	227	79	51
0.882	-0.895	-6	127	123	124
2.12	-3.31	-41.8	89	80	71
0.943	-0.762	-6.87	22	21	19
1.51	0.491	-12.8	89	87	88
0.915	-0.714	-6.46	30	24	26
0.777	-0.577	-4.49	50	40	31
1.32	-0.973	-12	67	55	41
0.23	-0.498	3.72	193	62	34
1.61	0.714	-14.2	104	100	99
0.823	0.332	-4.26	94	97	102
-0.734	-1.3	15.7	111	114	119
-0.0349	-0.48	6.79	103	74	40
-0.0473	-0.667	6.96	96	101	97
-2.47	4.77	43.9	94	62	37
1.32	-0.237	-11.1	124	118	94
1.45	-1.21	-14	116	99	83
-0.231	-0.701	9.35	104	104	104
0.0499	-0.754	5.95	107	111	110
0.221	0.16	4.23	141	126	87
1.01	-1.17	-8.03	67	66	71
1.33	0.828	-10.5	97	98	100
0.329	-0.217	2.54	126	116	104
0.28	-0.21	3.15	92	82	81
0.103	0.224	5.74	149	93	34
0.827	-0.493	-5.05	109	92	84
-0.649	-0.476	14.4	168	150	114
2.53	1.15	-25.6	95	96	98
0.807	-0.0732	-4.31	107	101	87
1.02	-0.819	-7.87	125	81	42
0.863	0.124	-4.77	77	75	80
-0.516	2.59	15.3	123	122	117
1.44	-1.13	-13.8	109	97	81
-0.573	0.427	14.6	138	111	82
0.3	-0.0596	3.07	75	71	72
0.283	-0.345	3.02	140	122	100
0.93	0.0415	-5.84	122	88	43
0.111	-0.354	5.12	145	125	88
0.162	0.429	5.26	111	111	109
-0.225	0.0773	9.67	220	150	65
-0.249	-0.93	9.59	90	91	96
1.03	0.401	-6.6	238	210	162
-1.27	2.81	26.1	255	254	206
1.44	-1.13	-13.8	109	97	81
0.152	-0.019	4.96	185	174	154
2.05	0.888	-19.7	94	94	94
-2.91	8.63	50.7	132	126	130
0.301	-0.351	2.79	65	46	39
0.887	-0.544	-5.89	109	95	84
1.42	-0.824	-12.9	152	101	44
0.0387	0.461	6.73	255	251	189
-1.65	5.18	32.5	103	99	100
-0.634	-1.64	14.4	98	104	104
0.883	-0.739	-6.05	84	80	71
0.823	0.332	-4.26	94	97	102
1.33	0.828	-10.5	97	98	100
0.826	-0.154	-4.65	66	53	47
0.0127	-0.673	6.06	64	66	65
1.23	0.881	-9.23	101	106	109
2.12	0.426	-20.6	88	88	90
0.282	0.275	3.62	25	23	24
-1.02	3.64	23	103	102	98
1.53	-1.6	-15.5	37	32	26
0.344	0.0927	2.68	16	11	8
0.793	0.106	-3.9	78	73	79
-0.573	0.619	14.8	69	55	42
-1.04	1.89	22.4	91	80	78
0.289	0.0189	3.28	201	199	186
-0.214	-0.712	9.14	72	70	71
-0.24	-0.444	9.43	99	102	109
0.956	0.325	-5.74	174	150	112
1.43	-0.549	-12.9	78	69	62
-0.354	-0.673	10.8	99	99	101
0.232	-0.28	3.67	36	28	25
5.47	-12	-75.9	128	132	133
-0.863	0.567	18.6	245	238	220
-0.295	1.76	12.2	89	90	95
0.857	-0.61	-5.57	29	23	23
0.835	-0.044	-4.65	135	114	83
0.094	-0.344	5.3	253	254	240
-0.538	-1.11	13.1	102	106	105
0.15	-0.0492	4.94	165	160	140
0.84	0.155	-4.48	74	75	77
1.17	0.455	-8.35	128	89	48
-0.256	-1.11	9.72	96	97	99
0.29	-0.575	2.98	154	174	181
0.025	0.401	6.87	197	138	70
0.87	0.156	-4.85	49	44	40
-0.485	1.03	14.1	105	78	59
1.26	0.783	-9.67	63	66	71
-0.19	-0.721	8.88	85	87	84
0.798	0.123	-3.95	77	73	74
0.903	0.255	-5.15	143	100	55
-0.596	-0.651	13.5	95	99	100
1.11	0.523	-7.48	126	109	81
2.05	0.888	-19.7	94	94	94
2.12	0.426	-20.6	88	88	90
0.229	-0.644	3.79	243	91	54
0.994	-1.22	-7.72	105	103	108
0.912	-0.159	-5.76	154	124	90
0.0609	-0.343	5.71	254	252	255
0.232	0.393	4.36	28	24	21
0.819	-0.167	-4.57	70	61	56
0.852	-0.583	-5.46	64	63	59
0.825	-0.742	-5.22	69	71	68
-0.00164	0.611	7.38	166	119	51
0.319	-0.386	2.58	36	26	27
0.831	0.177	-4.37	50	50	52
-1.36	2.84	27.5	225	218	200
-1.23	-2.03	21.8	123	127	130
0.823	0.148	-4.28	89	87	90
0.23	-0.0343	3.96	109	91	69
0.97	0.585	-6.07	99	100	104
0.0387	0.461	6.73	255	251	189
0.862	-0.719	-5.75	60	51	46
0.823	0.148	-4.28	89	87	90
-0.0442	-0.306	7.03	98	98	100
-0.0561	-0.453	7.19	44	41	36
0.827	-0.544	-5.11	96	85	79
1.9	1.24	-17.7	88	92	95
-1.86	5.56	35.8	93	94	96
1.82	1.65	-16.7	101	96	102
-1.73	-4.41	28.1	93	93	83
0.956	0.468	-5.63	253	253	255
0.956	0.468	-5.63	253	253	255
2.22	1.73	-21.7	72	73	75
-0.913	-0.682	17.6	172	153	110
0.165	-0.841	4.82	242	79	44
0.963	-0.282	-6.57	169	167	152
-0.0389	-0.909	7.06	113	114	118
41.4	-96.4	-625	86	84	85
-0.381	1.31	13	144	121	87
-0.0442	-0.306	7.03	98	98	100
-0.253	-1.25	9.75	116	117	121
0.00934	-0.626	6.08	253	253	251
0.894	-0.903	-6.25	88	87	85
-0.201	-0.666	8.99	63	67	68
0.343	-0.142	2.46	90	85	82
0.993	-0.287	-6.94	51	41	31
0.292	-0.215	3	92	85	77
0.826	-0.179	-4.67	52	45	35
0.296	-0.412	2.86	251	238	230
1.95	0.614	-18.4	93	101	103
-1.44	-2.47	24.5	136	137	141
1.05	-0.139	-7.54	54	44	43
0.305	-0.104	2.96	96	91	88
1.64	-0.225	-15.2	151	127	93
0.818	0.278	-4.2	96	99	104
0.0243	-0.342	6.15	255	247	208
0.32	-0.0152	2.88	161	146	127
-1.16	2.42	24.5	82	75	69
-0.412	0.918	12.9	141	109	84
0.986	0.409	-6.05	137	100	48
-0.187	-0.432	8.78	99	100	102
1.07	-0.66	-8.41	148	95	45
-0.0945	1.32	9.05	101	101	103
-0.0923	-0.379	7.61	98	100	99
-0.235	-0.253	9.32	85	65	41
-4.7	0.369	67.7	225	190	136
-3.53	-4.41	50.7	161	161	163
-0.582	-1.35	13.7	94	95	97
3.68	3.94	-40.1	111	110	115
0.849	-0.522	-5.38	41	40	35
-0.763	0.235	16.7	91	78	72
0.146	0.166	5.13	254	253	223
0.928	0.369	-5.34	142	94	45
-1.2	0.456	22.8	190	172	152
0.918	0.215	-5.4	174	153	122
0.0105	-1.14	6.78	41	43	42
23	18.2	-284	107	106	111
1.73	0.715	-15.6	94	100	100
0.338	-0.204	2.45	77	68	69
1.52	-1.62	-15.3	115	108	98
1.81	0.831	-16.6	106	107	111
-0.0955	-0.414	7.65	99	105	105
-1.44	-2.47	24.5	136	137	141
0.91	-0.729	-6.39	111	104	98
-3.97	10.7	68	97	97	99
0.299	-0.401	2.82	249	239	230
-0.224	-0.954	9.32	94	103	102
-1.04	0.366	20.6	92	81	77
0.339	-0.0275	2.63	31	22	17
0.827	-0.136	-4.64	49	38	32
0.978	0.0287	-6.32	102	76	43
-0.187	-0.432	8.78	99	100	102
0.892	-0.934	-6.16	87	85	88
2.11	1.58	-20.3	106	108	107
1.21	-0.802	-10.3	103	78	56
0.05	-0.0405	6.11	154	140	105
-0.0955	-0.414	7.65	99	105	105
1.12	0.56	-7.53	255	254	255
-0.3	-0.741	10.2	112	114	111
0.0549	-1.15	6.05	109	103	103
1.85	0.923	-17.2	99	103	102
0.345	0.0367	2.62	115	98	82
0.962	0.34	-5.8	80	51	21
0.282	0.275	3.62	25	23	24
0.143	0.725	5.53	97	97	97
0.36	0.119	2.38	97	95	96
0.959	-0.226	-6.46	70	65	59
0.298	0.225	3.37	244	255	247
-0.399	-1.27	11.5	93	97	100
0.107	-0.696	5.25	94	96	95
0.962	0.34	-5.8	80	51	21
-5.96	-2.57	80	170	146	112
0.221	-0.582	3.83	224	63	35
-1.88	1.17	32.6	116	102	91
2.3	0.754	-22.8	89	92	97
-0.197	-0.476	8.91	98	96	97
1.67	-1.78	-17.3	47	40	32
1.28	0.948	-9.9	108	110	109
0.828	0.43	-4.31	55	56	60
2.08	0.998	-20	103	106	111
1.51	0.491	-12.8	89	87	88
1.61	0.714	-14.2	104	100	99
1.4	-1.39	-13.5	53	44	37
0.181	-0.211	4.37	198	138	68
-0.00334	-0.346	6.52	58	53	47
-0.28	-0.96	9.99	103	107	108
1.49	-0.61	-13.8	41	33	31
0.327	0.153	2.96	255	255	250
-0.508	-1.03	12.7	112	113	115
0.252	-0.438	3.41	232	224	213
0.331	-0.297	2.46	207	71	49
-0.609	-1.49	14	101	102	106
-0.383	1.86	13.7	13	13	11
-0.211	-0.565	9.09	108	109	113
0.975	-1.05	-7.54	144	114	80
0.746	-0.618	-3.85	68	46	33
1.21	0.847	-9.09	69	70	72
-0.108	1.19	9.33	68	50	36
0.918	0.24	-5.38	168	152	116
0.23	-0.512	3.72	219	75	51
0.287	-0.477	3.03	239	94	65
1.21	0.847	-9.09	69	70	72
1.98	-0.0312	-19.4	134	97	44
0.856	-0.628	-5.58	115	102	96
1.86	1.4	-16.6	66	67	71
-0.0198	-0.189	6.79	164	132	85
-1.37	0.728	25.4	94	76	64
0.826	-0.179	-4.67	52	45	35
-8.81	-7.22	118	114	122	125
1.45	0.979	-12.1	84	85	87
1.78	1.44	-16.2	66	67	71
0.0401	0.56	6.85	95	59	25
0.354	0.0949	2.55	106	101	107
-4.25	-2.89	57.7	129	130	134
-0.35	1.36	12.6	108	88	63
0.965	-0.995	-7.38	43	33	24
2.22	1.51	-21.7	106	107	109
-0.266	-0.9	9.79	98	104	104
1.75	1.18	-15.9	96	97	101
1.64	0.67	-14.5	96	100	101
-0.639	0.693	15.8	214	193	146
1.92	-1.56	-20.2	236	207	149
0.229	-0.468	3.74	184	50	23
-12.1	28.2	194	54	41	32
0.169	0.156	4.86	114	82	59
0.278	-0.525	3.14	217	61	36
-0.174	-0.253	8.5	87	81	81
0.97	0.585	-6.07	99	100	104
1.21	-0.17	-9.46	129	87	47
0.258	-0.603	3.45	244	95	55
0.783	-0.633	-4.58	96	96	98
0.963	-0.395	-6.61	157	110	58
2.02	1.65	-19.2	102	105	110
1.08	0.471	-7.17	132	88	41
0.106	-0.811	5.18	93	102	99
11.6	12.3	-140	118	119	123
1.31	-0.805	-11.6	159	109	50
1.52	1.18	-13	90	91	95
-0.436	1.4	13.9	53	42	36
-8.76	-3.75	114	152	133	93
1.26	0.907	-9.75	68	68	70
-0.212	1.75	10.5	125	121	122
1.81	-0.82	-18	38	29	24
2.22	1.73	-21.7	72	73	75
-0.461	2.31	14.5	104	102	105
8.56	5.2	-102	117	118	122
-0.569	-0.504	13.3	181	157	119
0.827	-0.544	-5.11	96	85	79
1.98	1.42	-18.7	69	70	72
-6.01	-5.37	82	111	117	117
1.08	-1.44	-8.83	104	106	105
0.838	-0.75	-5.51	149	116	81
0.856	-0.201	-5.06	30	25	19
0.0483	0.409	6.57	39	32	16
4.04	0.804	-44.5	255	255	251
1.16	0.849	-8.49	109	108	114
1.16	0.849	-8.49	109	108	114
-1.06	-2.31	19.8	30	32	31
0.228	-0.528	3.77	172	43	21
1.01	-0.0753	-6.98	121	97	63
0.786	0.083	-3.82	68	67	65
-1.2	-2.55	21.6	103	105	102
-0.546	0.662	14.5	255	254	193
-0.0322	-0.454	6.82	102	72	38
6.87	1.91	-80.2	92	83	84
0.823	0.182	-4.27	91	93	92
4.34	-9.3	-59.7	84	79	83
2.11	1.58	-20.3	106	108	107
-0.719	0.647	16.8	68	61	55
0.822	0.214	-4.26	102	98	99
1.24	1.47	-11	254	255	255
1.01	-0.973	-7.92	155	123	85
-0.231	-0.77	9.37	72	73	77
0.824	0.233	-4.27	96	94	97
0.974	-0.114	-6.52	51	42	37
0.906	0.316	-5.1	245	224	171
1.05	0.794	-7.12	78	81	86
0.235	-0.57	3.68	244	80	45
-1.43	-2.55	24.3	123	124	126
-0.0945	1.32	9.05	101	101	103
-0.356	-1.07	10.9	108	106	109
0.0464	-0.784	5.99	104	108	111
0.358	0.0496	2.49	81	74	66
4.28	3.24	-47.5	69	70	75
0.881	0.289	-4.82	136	115	84
0.134	0.215	5.33	254	253	248
0.944	-0.504	-6.52	172	137	83
0.197	-0.714	4.21	28	18	17
0.865	-0.227	-5.2	57	49	36
1.82	1.8	-16.8	27	27	25
0.0296	0.492	6.89	102	61	29
1.03	-0.24	-7.38	44	37	29
-0.591	0.687	15	255	251	198
-0.112	1.3	9.51	89	89	91
1.57	1.29	-13.6	105	109	112
0.0464	-0.784	5.99	104	108	111
-3.23	-3.69	47	113	122	121
0.868	-0.559	-5.65	106	89	79
0.209	-0.595	4	244	91	60
-8.81	-7.22	118	114	122	125
20.1	22.7	-246	133	138	141
-2.62	3.3	44.1	255	242	185
3.09	-5.09	-39.3	111	74	47
1.24	0.225	-9.5	30	28	29
1.68	-3.01	-18	130	128	131
1.29	-1.24	-11.9	158	154	145
-0.022	-0.927	6.85	42	37	41
0.0184	-0.843	6.34	92	96	99
-0.189	-0.779	8.86	28	24	21
0.822	0.507	-4.24	98	104	104
-6.01	-5.37	82	111	117	117
2.3	0.754	-22.8	89	92	97
1.19	-1.12	-10.3	114	98	73
0.298	-0.54	2.87	101	115	116
0.789	-0.659	-4.66	117	112	116
1.45	-2.14	-14.4	64	64	64
0.992	0.902	-6.85	255	255	255
0.775	0.0394	-3.76	117	83	38
2.14	-2.78	-24.5	101	72	42
-1.22	-1.94	21.7	136	141	144
0.158	0.602	5.46	95	94	99
-1.22	-1.94	21.7	136	141	144
-109	-111	1.38e+03	114	120	120
0.86	0.421	-4.7	103	104	108
0.86	0.421	-4.7	103	104	108
1.64	-0.613	-15.8	71	49	36
0.796	-0.166	-4.24	160	135	104
-0.202	-0.825	9.01	131	131	131
0.338	-0.205	2.45	81	75	75
0.00639	-0.153	6.48	158	111	55
0.0834	0.528	6.27	141	121	94
-0.955	-1.58	18.4	120	130	132
0.825	-0.199	-4.64	131	110	89
1.81	0.831	-16.6	106	107	111
0.34	-0.29	2.35	255	254	255
0.814	-0.708	-5.08	70	70	70
-1.01	2.29	22.4	186	182	171
-1.89	3.91	35.3	255	253	221
2.02	1.65	-19.2	102	105	110
6.2	6.82	-71.5	120	121	125
0.0649	0.151	6.11	255	254	240
0.91	-0.758	-6.42	54	46	43
-0.521	-0.553	12.6	251	255	252
-7.36	18.8	119	100	102	101
5.52	-9.62	-75.5	125	86	45
-0.0876	-0.0954	7.71	152	118	57
0.975	-1.05	-7.54	144	114	80
1.19	0.27	-8.87	86	62	26
1.1	0.262	-7.67	36	31	28
-1.14	-2.29	20.6	43	45	42
1.18	-1.55	-10.8	78	79	81
0.14	0.187	5.24	109	91	51
-0.0227	-0.144	6.88	136	98	51
0.21	0.465	4.71	94	97	102
0.0455	0.493	6.69	127	104	73
1.16	-0.716	-9.58	234	208	159
1.01	0.245	-6.6	61	52	45
-0.0557	-0.967	7.25	36	31	35
2.01	2.06	-19.2	35	35	35
1.24	0.225	-9.5	31	29	32
0.29	-0.588	2.96	255	255	253
1.78	1.56	-16.2	58	59	63
0.324	0.15	3	99	95	94
0.0875	-0.819	5.52	21	15	15
0.823	0.182	-4.27	91	93	92
7.71	9.38	-93.9	137	137	139
-1.56	1.1	28.3	118	104	93
0.911	-0.874	-6.53	124	101	67
-0.556	0.667	14.6	255	251	190
0.334	0.0382	2.75	210	210	208
-0.698	0.614	16.4	80	71	62
117	88.5	-1.47e+03	128	134	130
-1.67	5.03	33.5	87	87	89
-0.684	2.67	18.1	91	90	95
-1.2	-2.55	21.6	103	105	102
0.84	0.399	-4.45	107	108	113
1	0.375	-6.23	135	115	80
-0.0236	1.28	7.75	130	129	127
1.6	1.39	-13.9	94	102	104
-0.815	-0.845	16.3	79	79	79
0.942	-0.28	-6.27	91	78	61
0.281	-0.249	3.13	135	127	104
16.5	-31.1	-241	207	157	106
0.923	-1.01	-6.64	88	86	89
-17.5	-8.1	222	255	255	253
117	88.5	-1.47e+03	128	134	130
-0.82	2.48	20.1	100	74	51
-0.0913	1.44	8.77	108	106	107
0.0911	-0.874	5.53	101	104	109
-0.397	0.877	12.7	255	251	192
0.848	0.426	-4.56	101	99	104
2.96	-5.62	-38.3	31	27	24
0.853	-0.717	-5.65	113	105	102
0.937	-0.298	-6.19	255	248	191
1.04	0.393	-6.73	94	64	26
0.995	0.211	-6.45	134	122	98
0.84	0.399	-4.45	107	108	113
1.66	0.113	-14.8	156	125	94
-0.686	1.77	17.6	206	197	190
0.953	0.195	-5.89	96	79	59
0.363	0.0649	2.42	255	255	255
0.911	-0.874	-6.53	124	101	67
1.78	1.56	-16.2	58	59	63
-0.105	1.26	9.37	37	32	28
0.0952	-0.795	5.41	120	120	118
1.04	0.225	-7	71	59	45
0.00837	-1.14	6.8	42	42	42
0.766	0.101	-3.54	255	255	255
0.97	-1.05	-7.46	30	22	19
-0.213	-0.776	9.15	89	89	91
1.49	-2.11	-15.5	15	14	12
0.107	-0.8	5.19	109	113	112
369	41.1	-4.51e+03	173	147	112
3.2	0.486	-34	83	83	85
1.78	-0.0157	-16.9	129	86	41
0.234	-0.539	3.68	241	81	49
-0.227	1.31	11	184	140	93
0.127	-0.336	4.91	253	255	250
-0.767	2.2	18.6	113	80	39
-1.2	-0.293	21.6	175	152	108
1.01	0.393	-6.35	255	229	174
6.9	-16.4	-95.5	147	142	146
0.803	-0.183	-4.37	98	82	66
-0.699	-1.75	15.2	40	40	40
-2.84	-1.01	41.9	151	131	98
0.367	0.102	2.29	118	115	110
-0.247	1.58	11.5	40	36	33
-2.59	-4.34	39.4	117	119	118
-0.526	2.09	15.9	13	11	12
-0.242	1.64	11.4	87	87	89
-0.507	-0.0426	13.1	138	94	45
0.357	0.00709	2.45	255	255	253
1.17	0.249	-8.64	255	230	183
0.935	-0.0432	-5.88	149	126	94
-0.243	1.6	11.5	87	88	92
1.44	-1.52	-14.1	75	57	45
1.17	-1.11	-10.1	234	209	155
1.3	0.293	-10.3	48	48	48
0.779	-0.701	-4.39	145	138	145
0.278	-0.525	3.14	217	61	36
0.259	0.0289	3.66	179	125	61
1.72	2.24	-16.6	138	125	93
0.102	-0.75	5.3	97	101	100
0.784	0.0196	-3.89	122	85	43
0.921	0.552	-5.47	107	102	109
1.36	-1.82	-13.5	19	15	14
-0.0618	1.19	8.68	93	93	93
0.769	0.116	-3.57	83	78	74
3.94	0.38	-43.5	124	101	60
0.783	-0.242	-4.18	150	97	45
0.896	0.52	-5.15	112	111	116
-3.94	10.1	68.2	91	97	95
0.982	0.624	-6.21	112	111	116
1.24	-1.78	-11.5	108	108	110
0.823	-0.726	-5.2	71	69	70
-0.24	-0.837	9.5	90	96	96
0.299	-0.504	2.89	221	76	49
0.293	-0.549	2.94	23	13	14
1.58	-2.51	-16.9	68	68	70
1.04	-1.22	-8.56	76	77	79
0.768	-0.323	-4.06	144	91	41
1.24	0.946	-9.48	102	105	110
0.123	-0.677	5.05	100	100	100
0.367	0.102	2.29	118	115	110
0.294	-0.532	2.95	241	96	65
68.8	7.86	-882	163	141	102
0.972	0.204	-6.13	109	94	71
1.41	-2.03	-14.3	18	18	18
-0.989	3.84	21.9	144	140	137
0.358	0.134	2.41	119	119	119
-1.93	5.51	37.4	97	93	92
1.9	-2.35	-20.8	234	206	156
0.117	-0.706	5.13	86	90	93
0.91	0.163	-5.34	253	236	192
-0.133	1.35	9.77	99	100	102
1.48	-2.28	-15.4	66	66	68
0.974	0.619	-6.12	107	106	112
3.12	-6.76	-39.3	141	139	144
0.768	-0.263	-4.01	137	86	33
-0.311	1.77	12.5	86	87	91
0.293	-0.547	2.93	29	19	17
-0.00515	-1.13	7	110	105	109
1.24	-1.78	-11.5	116	116	118
0.0632	-0.92	5.86	99	104	107
1.33	1.05	-10.6	93	94	98
-0.605	2.77	16.5	189	185	184
1	-1.19	-7.78	113	111	116
-0.212	1.54	11	89	91	90
1.76	-2.8	-19.5	11	11	9
-0.248	1.9	11	138	134	133
-0.478	2.51	14.4	136	133	128
1.95	-3.39	-22.7	93	88	94
